# 3D point list with one line of data per point:
#   POINT3D_ID, X, Y, Z, R, G, B, ERROR, TRACK[] as (IMAGE_ID, POINT2D_IDX)
# Number of points: 426, mean track length: 3.065610859728507
16987 -5.7383504202911082 -5.2525182519909741 12.359213476318926 181 87 64 0.43730013252521399 10 1017 4 910
16990 1.8857087321444919 0.1626805463976137 14.147613101789428 235 136 102 2.5414462785728467 16 1483 10 1022
16994 -0.9269216159161987 -1.6164782997851959 11.067902798937638 0 0 0 1.3701210196562523 7 1493 23 1762
16998 -2.2659083369901598 -3.1204746162675083 19.055175255987926 0 0 0 2.8138211914743625 9 1354 18 1134
17000 -3.323892603137844 -2.2873128379361884 9.8879787169127837 201 107 82 0.1163193365875132 8 1306 10 1038
17002 -5.2215316979243989 -4.3947544348183758 11.420951050706305 0 0 0 1.5274346523205131 22 1414 20 2621
17006 -1.1784711651431363 -1.3578240946968205 9.0637515939071633 0 0 0 2.5094130998418427 15 2155 23 1693
17008 1.6248620080414198 0.69122882529989449 13.243049532930677 226 124 100 2.3392496249986094 24 2143 10 1056
17012 3.8725602600735129 1.7793308140007185 15.659619762235319 219 125 100 1.7397806841502692 15 2490 10 1066 13 662
17017 -5.8041529841949986 -4.4147660576926517 11.77153739801653 201 107 88 2.3192207627405805 3 2086 10 1077
17018 -3.4404890009959836 -2.7407471100256804 12.176683947824589 166 81 57 0.81510017292878723 15 2074 10 1078
17022 -0.029930284544916027 -0.21987543079371111 6.8058574115294181 0 0 0 0.25282691328659368 16 1404 25 1821
17029 -2.8499402070198445 -2.1299751188882174 12.184350570825776 187 97 74 2.4698156365418167 15 2167 16 1342 10 1099
17030 -6.507258402958267 -4.4206240794217617 10.368012839510714 220 121 96 0.73097900683496353 8 1131 10 1101
17031 -1.8709495652886483 -1.6514768507629183 9.0147920635229717 0 0 0 2.0389189144442574 18 1026 24 1522
17036 -2.9733214899372791 -2.1442053152432434 11.669249588899186 0 0 0 0.82375247965284171 14 272 15 2162 16 1332
17037 -4.2010113868543053 -2.7220456854717869 11.540883287085316 186 96 69 1.4430831492410885 16 1289 10 1118
17039 -3.6550184679491209 -2.5082080247683511 12.387512342296549 198 108 84 1.4649254756390093 16 1322 10 1122 15 2154
17044 1.9654044039030976 1.1928269185212015 0.81505771880541078 0 0 0 2.1897960185472538 14 371 15 2312
17051 -5.4502248461759804 -2.8350688806754696 9.1251457451783562 225 125 95 0.14092443733126431 8 1298 10 1149
17053 -1.9990814019536551 -1.4565247940491863 14.483178502420962 246 169 129 1.131257224667257 10 1152 17 883
17056 -1.9693647468602349 -1.2261360730817017 14.469124153922905 241 154 115 2.5717240153584999 16 1449 10 1162
17058 -7.818201441068668 -5.4109340269622059 13.157142729529138 224 126 99 2.323465404163759 15 1810 10 1171
17066 -0.22841400364056147 -0.003673591864820525 15.865489393155798 252 155 120 2.5275794550588242 13 2726 10 1189
17069 4.1949775673946794 2.8492793435766282 19.08248189325554 234 134 95 1.4446035372804436 14 2342 10 1194
17072 -9.2718831643845263 -7.0006122254541596 16.010569348000892 229 121 92 2.0873432494482058 18 761 10 1198
17073 -5.0711330959396532 -3.033365628609848 13.207412547782065 228 136 101 1.4754936457578214 3 2245 10 1199
17082 -4.3048100254271473 -1.465914971335601 9.1849773714683103 0 0 0 1.7336688524122348 6 1447 9 1308
17083 -0.384936350494756 0.55880724565124629 15.138758682616256 250 161 116 1.2572758717974728 16 1546 10 1231
17088 -3.8963761467839269 -0.76084402336401324 8.4784521716621786 237 152 115 0.41178023239877892 6 1645 10 1241
17096 -7.7417101159904389 -4.4806599819439556 13.184965981763847 234 136 103 1.2191566455941181 15 1976 10 1266
17098 1.0313459972987746 1.4979502928980628 18.525719119133264 249 151 109 2.9726531887681222 13 71 10 1269
17105 -6.16317978174673 -2.3762855392746061 9.2373680009628814 239 144 108 0.3596150041320566 8 1436 10 1289
17112 2.6236619579053442 3.6908128503384816 15.942202629960192 238 135 96 0.75712556864279501 15 2774 10 1308 17 1135
17120 -0.88314419858101889 1.083801205594543 17.933313848756484 247 154 106 1.2543780915036928 13 948 10 1343 17 1004
17121 -7.5247484796963295 -3.4929161814716614 12.699888897158978 0 0 0 1.7789269345325776 9 1294 16 1293
17125 -6.134913007193652 -1.7864358421198168 9.1113239867004072 236 143 107 0.10310988972099963 8 1559 10 1361
17134 -3.770362942871873 0.019883826214925997 12.923362107761609 0 0 0 0.91734926889534607 9 1473 11 1399
17136 -7.0796221328952731 -2.3383629292726775 15.715454290298657 0 0 0 1.7105169890798873 13 600 25 1658
17139 -4.1248692041311887 -0.15172503293662026 12.991963040697883 231 134 89 0.089102607459813257 11 1416 10 1410
17144 -7.016540281198858 1.4919200506273762 30.786658679706914 0 0 0 0.68514359442047335 11 1455 24 2173
17161 -1.3399499473986285 3.2410072268253827 22.099583871287592 246 152 81 2.7384246412213065 13 2501 10 1543
17169 -6.3961002804508027 -0.057417819216023465 13.514460049136101 240 167 87 1.6178854655855877 11 1648 10 1631
17176 1.6065783981866719 -7.6660650071119916 9.6345135881907318 160 83 65 2.3182741705754011 8 123 21 124 14 1626 15 537 10 19 8 140 22 136
17177 4.2923377481385705 -4.1250590825148592 9.5468408956048414 147 77 59 1.6337053202663605 20 2780 23 971 26 1436 16 754 13 788
17178 -4.0356288280266881 -8.7747476664925976 10.145052972831328 57 27 19 2.0761800156985135 15 625 10 398 9 272 8 228
17179 -1.3765870345283451 -1.3325124784001097 10.485774461564418 123 69 57 1.5549757257649721 14 376 15 2203 15 2202 13 785 16 1368 17 820
17180 3.0138966273697236 -6.6852572242154986 9.6888427181246222 224 119 93 1.043273928110994 14 2945 10 13
17181 1.4702689608420099 -7.1713244675331111 9.6336079389005977 244 167 137 2.2583374458695484 9 270 10 101
17182 3.1494437525316417 -5.2587975395336652 9.0370818940469348 205 103 78 3.2689907605026649 16 545 10 105
17183 3.3984862171018082 -5.7776172168956013 10.374234787699587 0 0 0 1.8285973426384192 2 283 8 456
17184 -0.88571535461479778 -8.7075787217847669 9.9448760440679624 198 97 74 2.7027744480641722 9 172 10 173
17185 5.6986041144585542 -3.744931528634611 10.06809265664166 179 88 71 3.2228517896037028 14 2954 10 197
17186 -3.3855054654934915 -10.977487876479199 10.669422591764047 173 80 59 2.3249349031858504 15 161 10 213
17187 5.2131409780357689 -3.9791861380455908 10.165398922301618 203 107 86 3.2809586248960674 13 2797 10 225
17188 0.92504664021418526 -10.647802551167594 14.00056408816204 212 105 78 2.0946761432049645 8 298 10 242
17189 2.9617371639494152 -0.86749055531436459 5.9861525023727165 181 90 73 2.4778484433368342 8 853 10 301
17190 3.0421655169923172 -0.067070583552151231 5.6594254902362033 209 108 81 0.085836436886454162 8 1014 10 338
17192 1.9846238366897573 -4.2852623081829408 9.6337640506846114 214 108 84 1.4601124960234504 25 993 10 345
17193 -4.3554095227529626 -9.6840719956289263 10.417280311362214 189 94 71 2.1394677636427915 15 451 10 352
17195 2.2801517200344561 -4.9395324383762125 10.961422774160573 216 110 84 2.5180928624967063 16 791 10 373
17196 6.2980306280401361 -1.1508141734136688 10.323553771487378 210 109 88 2.9770258676272263 9 1040 10 383
17197 2.3920192972600804 0.54296908073394257 4.8280073636315635 214 108 85 0.62294739670629817 8 1162 10 405
17199 0.17537872382761086 -5.1919213307335967 10.136718197481631 0 0 0 2.1176797971506529 11 232 21 861
17200 -1.1027512906720081 -5.9643989178045231 9.7529564879304242 193 98 76 1.6227188641945083 3 1026 10 438
17201 3.1321095242209194 -1.7785227144464915 8.0029400492187239 0 0 0 3.2686800985487432 13 1567 25 1462
17202 -5.1488867413367698 -8.001800520073779 9.925965124986373 203 105 82 1.859072820304664 11 502 10 583
17203 4.6955360120595611 -2.2172098062203172 12.516347697664715 214 116 95 2.6681603305268951 20 812 10 587
17204 -5.8692934313625038 -8.6364437820412832 10.390179821641819 211 110 89 3.0680078058311633 9 361 10 617
17205 -6.2370919746757174 -8.99032836637274 10.986690537061873 202 100 80 1.9453697329633615 9 391 10 650
17206 2.2432888647697693 0.98251693561209941 5.9537154283203355 227 123 90 0.31010190412105826 8 1395 10 673
17208 1.2785656534448913 -1.7885761967062292 10.700195024119543 159 79 62 0.27960707969776721 9 1148 10 789
17209 -4.4517781646497916 -6.2916932871664848 11.208299936367599 197 96 73 2.0415440432200467 11 761 10 801
17210 2.1055726877698291 -1.0471676658503417 9.1138523134323677 0 0 0 0.59603519989039944 15 2032 20 1620
17211 1.1357775587989596 0.99885961093330577 6.2145298708378691 231 138 107 0.85604572347300989 8 1523 10 851
17212 -6.7156930215978896 -7.1175686763278971 11.933872807401237 204 105 83 2.8999655738322021 9 763 10 934
17213 0.6362070188318294 -1.513035253409629 13.241252278657251 212 107 81 1.122456833474895 22 2013 10 962 19 2404
17214 -4.5087650752892303 -4.3514554601930433 9.3221380169032564 0 0 0 0.6162685093753788 13 1306 21 1019
17215 1.3504849977074269 -0.48005583759453285 12.853726446468606 243 139 104 3.7428311336520275 16 1432 10 983
17216 -1.0753050882701907 0.4855856201962323 6.9505717466914589 244 149 115 2.6251629667120961 8 1605 10 1040
17217 -0.052944199225069578 -0.2752548981480033 12.027310928429786 236 140 100 0.65045907360763655 9 1394 10 1052
17218 -3.296788354212866 -2.4183627306074791 11.12412692918411 175 86 62 2.0404187429717022 8 1340 10 1064
17219 -3.6963686246564937 -0.78600780180406293 8.8265649680711338 251 171 136 2.5451605087648765 6 1580 10 1222
17220 3.0209418369167049 2.4711666426629511 14.585594820440386 0 0 0 0.29503684595510082 16 1661 20 1566
17221 -7.1329590161502257 -4.724228186377295 15.269008585161121 231 132 97 1.6486998643664488 11 1243 10 1238
17223 -5.1139335884191075 -1.885636849735318 7.7324245412846464 0 0 0 0.56490093310295197 6 1441 9 1184
17225 3.620838328280946 -9.3131239543769677 9.4282916240436894 201 104 84 1.1964833215794275 25 27 17 2
17226 2.4068222228151064 -10.208396426780945 10.341630991772588 0 0 0 2.858838849234175 9 13 14 304 15 49
17227 1.4417038561647146 -6.4445790461934269 6.3086547262536516 0 0 0 2.0443301034177521 14 77 16 55
17228 3.2973448433748369 -9.1046016954687286 9.337193614324125 181 87 68 0.96964914218165477 13 2047 18 29 17 16
17230 -0.38765920759684258 -10.837705569837865 11.013864945788781 0 0 0 1.2081245296180596 9 63 15 148 16 75
17232 5.4689125946783781 -9.110341948023386 9.8430682829271294 182 84 67 1.4507806428742851 24 93 17 41
17237 1.5061884020748229 -10.038173846770901 10.897399132450788 196 90 68 1.3431350958012762 9 89 17 67 16 114
17238 7.3412943386806013 -10.222102436962164 11.869541162717812 184 91 70 0.46810248075080962 9 69 17 71
17239 2.2407613011399987 -7.7541702160090793 8.5796635744231668 0 0 0 1.8357076909043031 13 244 24 75 18 100
17240 2.5440180307773153 -8.1519994185267919 9.1577615353711259 0 0 0 0.48035175605329139 13 945 25 144
17242 -2.4868158089094092 -7.2678197872619146 7.4952085766985643 158 79 63 0.92953874246952961 3 318 17 83
17245 1.0863825047647169 -8.331058374165794 9.3009933501791853 0 0 0 0.84463707855375503 15 317 24 73
17248 -0.95764615788122009 -9.1742233859097002 10.013226577254125 176 88 70 1.2305151290764988 16 172 25 55 17 92
17249 6.3142045219517149 -8.5632212224853692 10.138216810390828 198 97 74 0.80753752269941725 24 244 17 96
17253 7.4115994340546987 -8.4957486296987881 10.651528319193188 0 0 0 1.4888998772830064 13 2123 20 2102 15 285
17254 0.78436111088538929 -8.6822290831011806 9.916751115909701 0 0 0 2.7210630532777138 9 140 16 194
17255 5.643263362887474 -7.1683019038522247 8.7373823658143035 185 91 70 2.6636210770892728 13 2435 14 529 15 283 18 191 17 113
17257 1.2607558115137081 -9.1046440169896812 10.335648573984958 0 0 0 1.2839942314048063 8 6 24 101 25 133
17258 6.9542600405063659 -8.1178106422168863 10.302326206125697 190 93 76 2.1151312403057272 20 862 17 121 22 186
17259 -0.1560799021395721 -8.3172601230478289 9.7507897866530122 0 0 0 1.5364231102082773 10 120 16 236
17260 1.2381127606601094 -8.1128992781219171 9.7299586968156238 0 0 0 1.854260278036896 10 10 14 1918
17264 5.339048422034943 -6.8284200470988887 8.7912542986370745 0 0 0 1.2290233863169115 15 393 18 218
17269 0.82375301089900643 -8.1554545099228726 9.8829374605108082 0 0 0 0.94048969381475267 9 197 15 499
17270 -2.6109948928411413 -7.3246808630406148 8.4680286959424134 0 0 0 2.0586026535262585 15 582 20 2804
17272 2.0486832372073169 -8.122402071144629 10.270454289205174 205 99 78 2.0124618119570035 14 2607 15 538 27 266 17 166
17279 -0.088462476396212505 -8.1979677027455526 10.535184514841038 0 0 0 1.2665602280193127 18 244 20 1388 26 261
17282 -2.9381683884039975 -7.6579501942345498 9.5141178952376499 170 84 65 0.87399743510566597 5 1610 17 195
17283 0.1571965524767471 -7.602932061921674 10.016665575741085 189 97 79 1.5332662575109031 13 2068 18 255 17 203 22 288 26 323
17286 2.1032699003169744 -7.1190389269596679 9.7473273077302931 0 0 0 0.14471004939319349 8 215 13 2785
17288 -3.2781808160197752 -6.2452834499883503 7.8294244797191537 0 0 0 2.6369991949242011 5 2123 24 136
17289 1.4808615594474761 -5.6805432987329603 8.3406181657554104 0 0 0 2.0669459118452123 10 102 21 417
17293 0.71514087670312987 -7.3824307963068074 10.333610214709971 0 0 0 1.662898697200933 16 412 25 420 20 2066
17294 6.3618684091534501 -7.266572273276223 11.093626584592126 0 0 0 1.5004159121848437 9 311 18 381
17296 3.202918533282499 -6.7528918828149651 9.7429698686591149 0 0 0 0.17553568604014311 13 1342 23 417
17298 2.0649900106669672 -6.85163606336131 9.7979374657801461 202 110 91 1.2179090282542848 18 345 24 487 17 246
17299 -4.1219702170368206 -5.6007361444051851 7.0829880976758242 148 82 68 0.58866999917159979 18 251 17 247
17301 4.6751835029555222 -7.0649706935665311 10.661599487353806 0 0 0 1.4341940761664034 18 384 15 721
17302 2.6747901875794575 -7.2951474775496195 10.588495329908271 0 0 0 1.8470217096842545 13 8 18 347
17303 0.8192839077218167 -6.3901520729711319 9.173755226276425 0 0 0 1.3880716593251061 5 2325 10 205
17304 2.9324723735992566 -7.5455120380031611 10.89467439523351 0 0 0 1.1483073336987526 18 348 23 450 9 334
17306 6.9841258556428052 -8.3461355259657086 13.195631165483624 181 101 86 3.2818674697128563 9 384 17 262
17311 1.2698315480291447 -7.1364024209128925 10.655719854030167 210 110 88 0.97161144358245932 16 463 24 555 17 277
17317 -3.8579321249904477 -7.602132903453656 10.641862724209162 0 0 0 0.54221366452863773 10 570 26 299
17325 -1.7461192368995113 -6.990625821267253 10.537835226517736 0 0 0 1.0415087319618364 10 444 27 424
17328 -2.9390991590344377 -6.3196642514402974 9.5626090825401295 0 0 0 1.5613203431446248 14 2064 22 563 23 488
17329 1.4579266841722485 -4.1591199248012227 6.9694105728039393 0 0 0 2.6075627490045163 15 979 18 459
17330 -4.7476289848229403 -6.2067798007170998 9.1742568168234957 172 95 81 1.481175983324531 15 1140 24 382 17 322 14 2320
17331 -3.1768851944739773 -5.7691104273219844 8.6399317053847788 0 0 0 0.90059043166680697 18 397 23 434
17334 -3.6653828213626589 -4.8042874405705405 7.2598252302854691 171 95 78 1.2530471569993258 14 782 16 662 17 332
17349 -3.6165222154492138 -5.1692765849252167 8.0854358699920716 0 0 0 1.6926395005579749 14 2744 23 479
17351 4.3216522047686867 -4.8513318170441693 9.4151423648805252 0 0 0 0.65473395253366207 20 1966 25 890
17352 4.9721063528022897 -4.9878787924417782 9.6888544477716199 181 101 87 0.1571773985446519 6 217 17 369
17354 4.3426970296379475 -5.6482749437257214 10.686459042555093 0 0 0 2.2767392515595435 8 490 13 336 18 543
17360 0.74244529642197032 -3.8778294499307151 7.1663053560214198 0 0 0 0.50484030662272916 14 2537 18 522
17367 5.188501028040803 -6.893357433524498 14.204370977317796 0 0 0 1.032034096407787 9 646 13 1199
17370 1.0102388536663851 -4.4890282089831075 9.0467480682899204 0 0 0 1.8101594039662789 15 1297 18 599 13 670 14 2839
17371 1.0627088211603879 -4.9259544135376112 9.8296174332628485 0 0 0 1.1900181690361198 9 622 11 126 13 1026
17374 -6.1017647087150779 -5.8817940944001599 10.076331822760572 169 83 66 1.7771643362292828 5 249 17 429
17377 -3.9392399355276377 -4.1006066577138149 7.2710404684123011 0 0 0 0.61089418314918964 18 529 21 727
17378 -1.4083754244425786 -4.4730545392376602 8.7451336805206221 0 0 0 0.54217709503284461 2 899 13 1028
17382 1.3714675468332103 -4.3342286277024185 9.4260471630625808 0 0 0 2.3726965128528015 6 464 8 694 20 2193 21 938 27 1069 10 372
17383 -4.3134303843901121 -5.5485324977306512 10.278863572003861 0 0 0 0.10913578309882394 16 823 14 1785
17385 -1.8386990921877582 -4.9333055115017617 9.6196117399550705 0 0 0 0.83826202209746847 27 769 22 942 20 1668
17386 -2.7778522740924276 -5.9864041500328078 11.312989664235785 0 0 0 0.70627000406136164 16 799 18 584
17387 -1.4831104879392718 -5.2437472492813217 10.190892421205223 0 0 0 0.72720734905279083 9 707 11 489
17388 6.6817709105899246 -2.8552226172501669 7.7562380050863355 0 0 0 1.8456408240505837 15 1246 18 698
17393 -2.8699754098666652 -5.6239280329331756 10.962666991683209 0 0 0 0.62223170121229721 6 640 8 800 11 641
17396 -0.66190155386464178 -4.8981430482791373 10.277486896892556 0 0 0 2.1947185889738208 6 571 18 651
17398 -6.4059762600454935 -5.5835350313058942 10.583686443250267 0 0 0 1.9964854504716525 16 891 18 608
17400 3.94959726378428 -3.8049252941005403 9.8042872153288894 0 0 0 1.5590150923216881 10 292 16 839
17403 -3.0231241141219125 -5.462145958667306 10.853984809118524 0 0 0 0.58495352279490342 11 674 27 764
17405 -4.5615527031940628 -5.0307278148518284 10.28361915962633 0 0 0 1.5082752052865789 5 627 16 913 7 823
17406 3.5181637132648205 -3.8064550583206245 10.275337530995778 0 0 0 1.0537976451124651 9 761 16 883
17414 -4.2103094044323131 -5.5535934854705955 11.84423281104344 0 0 0 2.0643795831821219 16 933 20 1488 22 1159 19 817 21 1037 13 542
17420 -0.20543050401777677 -4.2099683214512247 10.712704146386967 0 0 0 1.545087907064951 21 1175 22 1304 3 1452
17422 0.38228022378324289 -3.2651908346160123 9.2182865286443718 0 0 0 0.21551489471175289 7 666 20 2303
17424 -4.5440262099258968 -4.4203907765262551 9.613415336103273 0 0 0 1.0639986203440335 13 1076 20 357
17425 -0.41316209506550106 -3.9800428211548948 9.9263545398588562 0 0 0 1.9771514265577967 16 945 26 1402
17436 -0.17404196125730245 -3.817547813263042 10.223735974330801 0 0 0 0.84305031583959733 9 863 13 1562 16 985
17438 -2.7924721022856791 -4.5519360897794661 10.732008067623829 0 0 0 0.4805525486294841 5 2064 14 1866 7 830
17441 -7.7524372680425122 -5.9759688754064699 12.317973918310807 0 0 0 1.299788553860793 20 2085 21 1067 23 933
17442 -5.1639790915040367 -4.7292780946514075 10.754789739323607 0 0 0 1.6116875392312018 9 919 18 725 20 2622 16 1005
17443 -1.0809887894589834 -3.8782626542395731 10.390217004335195 158 78 62 0.99117151124274339 13 113 26 1480 17 579
17446 -3.6369572693064933 -4.564018796983631 11.187927659442481 0 0 0 1.8258283502540062 16 1026 20 2197 15 1660 14 135
17447 -1.2177956555445246 -3.4892042974397941 9.5387877706533803 0 0 0 1.6916531206555472 22 1374 16 1017
17449 -2.0472058610811987 -3.7759206927079503 10.147898986052494 139 72 61 1.3557442502438841 13 2010 18 792 17 594
17455 0.07713662958310781 -3.4276716663482607 10.193691193323067 0 0 0 1.0439938992891336 7 784 14 986
17457 3.2497520746082116 -2.3522215391543653 8.6612924604990713 191 92 70 1.3718983900808295 14 233 20 2423 17 609 12 1394
17458 -3.5510831882969769 -4.4974684123559054 11.665877590791643 0 0 0 1.1975821558008903 11 921 13 1759 14 1198
17459 -2.0796473457466935 -3.596116778755055 10.099093469039575 140 67 54 1.5095660822281787 9 937 16 1064 17 612
17464 2.0167936003998386 -3.1512358283440949 11.149879118656663 0 0 0 1.8431551353196731 18 902 19 2348 22 1569 24 1387
17468 -1.95359210572099 -3.6955599374157488 10.869847897507128 148 71 58 1.3653684212083466 15 1749 25 1208 9 978 17 625
17469 5.0976274452675145 -2.3844390994303994 10.657668892015385 0 0 0 1.7516077442637463 8 900 18 947 16 1085
17470 0.30244821563644397 -3.5943542756530875 11.465813384337752 0 0 0 0.32112471864729397 13 818 24 1312
17472 4.4513877367876509 -1.8582505555755011 8.3234005741373807 198 109 88 1.9877881110894868 13 197 20 2086 17 630
17474 -0.062533023236330976 -3.8458930581516122 12.262342165438326 0 0 0 0.2245502030249909 10 777 19 1465
17476 -2.30525218678968 -3.7290778277886782 11.044995450701951 0 0 0 2.105272004600915 9 992 15 1770 21 1361 23 1312
17481 -4.6298900613668819 -4.1791448964509739 11.490302556274928 0 0 0 1.1638006539490273 8 1142 13 450 18 833
17483 -1.3085739620372359 -3.1084085778577113 10.16135166172347 154 79 66 1.4438175403541098 23 1370 26 1665 17 649
17485 -2.292704794042757 -3.6204050638517655 11.190089450921787 144 71 55 1.5892035449649653 18 870 25 1250 17 652
17488 -2.061471175174364 -3.6782662134203674 11.830751344591302 0 0 0 1.3133188306878523 11 869 24 1308
17491 -0.77264583924450536 -3.0722996148385979 11.005878535135775 0 0 0 1.9153049236735609 7 1067 21 1486 24 1368
17498 -8.867064147769451 -5.2490828341277762 14.562170994434759 0 0 0 1.0880854703853453 8 1337 13 1053
17500 1.7007343836706006 -1.8644407028923562 8.752797491288506 134 69 52 0.97428936244597197 15 1829 18 959 17 686
17508 2.9108359526695029 -1.7304170767255609 9.141739349257108 0 0 0 1.9663005862044798 11 412 16 1159 18 987
17518 -5.8098249447929442 -3.6050710577516982 11.786725632955891 0 0 0 1.6180161711588852 13 235 25 1266
17520 -1.9693342987340761 -2.893820258790389 11.545684326370981 0 0 0 0.53069294228292008 5 2020 18 972
17521 1.3595096510116047 -1.786271920394477 8.8372869519596602 0 0 0 2.2990437959387573 11 604 27 1703
17522 -3.9499813702095761 -1.6708786253046377 6.7829030526757768 153 82 67 0.80253225562432851 15 2081 20 1477 17 725
17528 -3.7903094762476299 -2.6610694434511459 10.293607351354913 0 0 0 1.4800168575914938 25 1351 26 1752
17529 -2.8225585475426369 -2.876240052009015 11.552887631399019 0 0 0 2.0201458987299765 5 849 9 1174 16 1244 15 2006
17538 4.0593161504478781 -1.2354538631386498 10.367797520220011 0 0 0 1.3072027045696053 13 2653 21 1771 25 1707
17541 -2.2745453156576869 -2.4051495159729086 11.784288318967528 0 0 0 0.41022260594880039 14 2035 24 1492
17542 -0.60237605193106913 -1.9886386673630607 10.729927995695261 128 64 49 1.1561037193541963 18 1028 17 753 28 1860
17547 -1.10529819914518 -1.7681438330249695 9.9762243839426894 128 66 54 1.5691313384704184 22 1849 23 1660 17 761 15 2076 24 1532 12 1834
17548 -3.2383425952454798 -2.289210905683869 10.846474376665812 141 73 55 2.3728846072442615 14 1805 15 2115 16 1301 25 1468 13 672 17 762 12 1869
17555 4.0186101745765512 -0.68296177243855194 9.140350012914876 220 125 103 0.77961717603588454 13 2465 27 2055 17 771
17558 -1.4024494256532987 -1.9075529640915756 11.231283586082256 138 70 57 1.2929859143931854 27 1663 17 776
17560 0.83939897304225985 -1.3738113740805091 10.916576125454199 0 0 0 0.95770772459360098 16 1325 20 2201
17562 3.4498852320409803 -1.437932012674852 12.597625810342759 221 118 90 1.9984329952785693 19 2390 17 782 12 1760
17564 -1.3342330293513316 -1.9159707811981184 11.763827290843238 133 70 54 1.6089648613893612 9 1267 20 833 17 785 25 1597
17569 7.2288833096903495 -0.09659106548921996 8.9993618109541735 0 0 0 2.1206473612040639 13 2803 16 1280 18 1173
17571 -1.4644710129730676 -1.248592660035682 9.1789256189195036 0 0 0 0.82035802112729761 18 1078 27 1805
17572 -0.55706614014291045 -1.4904302512551231 11.904434688528401 0 0 0 2.2404826824735036 7 1539 21 1873
17582 -1.7001396503896644 -1.674911311250334 12.160037292007921 0 0 0 0.2878725344070161 3 2178 15 2204
17587 -0.60585587615324699 -1.3025754720058447 11.525771785880627 0 0 0 2.1322206468141394 18 1135 22 2024
17588 -0.82712315561185157 -1.4663802213042709 11.918313947099659 0 0 0 1.8228825859176088 7 1564 13 619 17 834 14 1882 15 2198
17593 -1.4890809127345914 -1.4809992803579926 12.214987645548899 213 132 102 0.99175893209722354 22 2023 17 841
17595 -0.99963968805269243 -0.79423369264279242 8.6690932887672556 228 146 118 3.1596072785042053 25 1712 17 844 15 2239
17600 -10.374248761307744 -3.5025554731905273 16.647491534851532 0 0 0 0.48876872189327364 16 1409 18 1088
17601 -2.0817804350320208 -1.1207217861550192 9.6398442164819489 0 0 0 1.918236192445367 23 1837 25 1692
17603 -4.2482686298949952 -2.1582929356734799 13.965019784915343 0 0 0 1.2517824967656304 11 1248 22 2000
17604 5.4792917600280688 -0.4810720935963827 13.043516510218163 200 107 82 0.015547935867320851 10 727 17 862
17609 -1.4072791191629137 -0.8251746472006305 10.503110897057839 0 0 0 1.0237231800206601 18 1204 24 1767
17619 -3.2157924166139731 -1.4214914633658331 13.892361125101687 0 0 0 1.4898001819802422 11 1234 22 2119
17620 -4.3123778252814331 -0.98966773646748807 8.5815108798482349 0 0 0 0.64295944648728454 13 2438 24 1647
17622 0.36307286071869066 -0.33257196445786713 10.107712158327116 230 125 85 0.97299279056050891 23 2006 17 893
17623 0.47187806008444322 -0.45762398466672854 11.073922482750817 228 123 84 1.9283819783789704 14 846 21 2102 17 894
17624 0.12194959339983232 -0.25976787469331553 9.1610745762662837 0 0 0 0.5379219687103971 14 312 26 2520
17626 -6.3827786601805787 -1.8829426494363219 14.543950985297927 193 114 78 1.4374399709748837 25 1696 17 899
17627 2.1832051266522621 0.49869584055440869 6.4617326580220089 223 120 91 0.63675547595125603 18 1260 17 901
17631 -7.6383837991192038 -2.9623850390680091 21.806103960446279 0 0 0 1.8185238056260336 16 1456 21 2017
17632 0.65433408458455178 0.54637368687169052 4.9971912210380696 0 0 0 1.2276864016492912 13 594 14 732 18 1248
17634 -2.6406700916632091 -0.80784142998841701 10.957856064265014 68 41 34 1.873608766471434 13 1547 22 2178 12 2181
17639 -1.0236735675517619 -0.028248508341436676 8.433715366811299 219 125 98 0.56309129946321668 18 1262 17 923
17640 -7.0106942136653858 -2.2430486363247173 20.008735156369454 217 141 105 0.66194241026703238 17 926 22 2177
17644 10.713653192163063 0.46485376157996589 22.941863992622377 0 0 0 1.0803019901291968 9 1420 14 1226
17646 -4.9813711394521185 -0.61009866104462451 9.0481752572263616 0 0 0 2.5591241008464296 13 2024 24 1788
17647 -4.3987845909842482 -0.23309084290054347 16.423953026577369 0 0 0 2.5756813955038833 5 1141 24 1948
17651 -0.87739318038246672 0.22247375489093579 10.106299191878685 232 138 101 0.50536132157819591 25 2017 17 947
17652 -2.2757797182834638 -0.23722479981376698 12.304467148900972 0 0 0 0.95158816137616764 13 207 20 1092
17676 -0.058193700208587877 1.1181287194475773 10.069030129023208 242 142 101 2.1095236750909478 22 2660 17 998
17682 0.060990622606458864 1.3345789956111362 9.1332531542709088 247 144 107 1.3623054981469462 14 1621 18 1455 17 1014
17683 -2.8628851623926566 0.91208312919727463 5.9076574927575924 242 146 108 0.76429010904536565 16 1673 17 1017
17684 -1.7541830769432427 1.1727828873862909 16.443845830212659 0 0 0 1.2105084533615365 11 1309 20 1447
17685 -1.2083036107785152 1.202235500176777 10.889938798223522 0 0 0 2.1403457122814609 15 2579 20 367
17686 0.62738288866843472 1.4486461898973697 8.3487450812534405 244 147 104 1.6542457299759994 18 1459 17 1020 14 1776
17690 7.4980796913619621 2.7844510383276799 29.99055762467707 198 114 88 1.5485687482033779 9 1533 17 1026
17691 2.6838773642356513 1.9269206741750011 17.767644616625454 239 139 106 2.3262530573199469 10 1183 15 2544 13 2399 17 1028
17692 0.0096995962894553308 1.6006948543275421 13.71824841822907 0 0 0 1.3137265485923066 11 1245 17 1038
17693 1.5950943258555093 1.8264947239487968 7.7653759257672519 250 148 112 1.1290073123001196 18 1507 17 1044
17697 -3.2337356675877795 1.2488823942759011 11.961080392270272 201 132 78 1.4929681247908857 13 2877 23 2464 17 1057
17701 -3.1067408255359257 1.1884575181399692 6.1682196591346026 247 192 148 0.27082394458379122 16 1718 17 1068
17703 7.0155229171247147 3.0214634683274388 9.4761769096396637 152 82 69 1.0004578882640611 14 2059 18 1648 17 1078
17710 -2.8088060239158663 2.0998062324539157 22.688187913507839 0 0 0 1.9552353319738631 18 1565 19 2744
17712 10.052454978612902 5.5301332713302207 48.704703281241777 0 0 0 2.3966477481966852 9 1638 18 1630
17714 1.6789977026710554 3.1573875240252982 17.426228226175546 0 0 0 1.6714531998957485 11 1241 14 2802
17716 -15.233796109982782 0.66115548856705342 28.976475670669583 0 0 0 1.4303530075290753 11 1857 13 2730
17717 -0.33722822902748656 2.4188594601514426 14.499824718264199 0 0 0 0.37438091818570896 11 1320 14 560
17719 6.6296416339094124 4.2985945915182615 23.808377023970809 0 0 0 0.12947806840247816 10 1225 13 499
17721 0.66787976350065681 2.2301931084328701 5.784293045800406 218 129 75 1.8390781859155307 13 2173 18 1642 17 1131
17723 -0.26380708512005774 1.9487527062852676 3.9214750482598073 192 104 68 0.56642551079671932 17 1139 12 2852
17725 2.2801379341134598 -1.1995998960647307 8.9414968560353376 125 61 49 1.3028425525424185 13 547 18 1053 17 747 15 1981 20 2539 16 1249 18 1040
17726 1.2027877407174128 -5.733273473834382 9.6469573654057434 138 70 54 1.8412548590358997 14 2 10 285 15 1035 17 328 13 355 16 599 18 471
17727 -1.9229858136041633 -3.5382663483424617 11.061141238477513 98 49 35 2.9439416248844688 5 2518 1 1984 6 936 13 638 10 878
17728 2.0014261799233455 -6.9634018876224379 9.662404902587566 149 78 64 2.0662743360531244 14 2638 15 692 16 368 18 305 10 73 17 214 22 394 23 339 24 425 25 432 26 509
17729 -1.1707466653734466 -3.0041957610146248 10.882584512418081 102 51 41 2.1230683390003118 9 1053 15 1871 14 1546 17 678 23 1451 26 1731 14 11 13 680 27 1457
17730 0.16481917537667401 -7.5699770489575675 9.5181591386600886 111 62 51 2.5209913666739574 14 2119 15 588 13 1555 18 214 16 313 8 183 20 668
17731 -1.5075380799470486 -4.3070238990682004 10.767996050737356 111 55 40 2.8843985197054383 8 916 17 551 2 1111 5 1976 10 735 18 759 24 1095
17732 -1.1714643308803696 -4.3487519613157897 10.835717958229038 122 61 45 2.7040998873698965 5 2857 8 893 18 749 17 552 9 867 13 1089
17733 -0.57337669902736299 -3.9199878945068067 10.543357276531424 128 65 51 2.2739085793237535 5 746 21 1253 24 1166 11 602 17 573 8 903 25 1134
17734 -1.5240265837434888 0.22143894605284806 10.67068422745333 106 59 44 2.5498344833497106 19 2908 17 955 13 2268 23 2193
17735 -1.4380724298035128 -1.2629394046878191 8.9525990106786395 149 84 67 2.2670637818731811 20 1675 19 2917 17 797 22 1922 27 1798 25 1618 21 1813 24 1587 27 1793 19 2505
17736 -0.89376196782936046 -8.0548541216353886 9.6567629064054703 98 50 42 2.9594252643528742 5 174 13 1182 3 369 20 1354
17737 1.5576885993915666 -3.451233356044082 9.8735640940450224 75 39 29 1.2247018117908033 8 840 9 832 20 2271 22 1377 21 1246 23 1212 26 1612 24 1216 24 1235 27 1368 25 1210
17738 -3.0962031297671455 -4.6174657409764706 10.250831406262396 0 0 0 1.8012973531602157 16 940 14 144 8 895 20 2115
17739 3.7755387234070446 -10.679594106415941 11.297051943734207 0 0 0 1.928318430505555 9 39 14 2681 16 57
17740 1.8978549933721156 -9.5224563594706115 10.343359085230697 0 0 0 2.8545674993072097 9 75 13 407 15 208
17741 6.2682134656433055 -6.4250785172290756 7.5560780663379861 0 0 0 2.8696547117373803 15 152 18 160
17742 4.7843358733203587 -2.3787031572398445 2.7536150851596601 0 0 0 2.4940379236245138 13 2022 15 135 14 768
17743 -3.5444700207237672 -8.1283214039624649 9.0905118889500258 162 84 67 1.9532598279888411 24 17 17 131
17744 9.7624592323116506 -8.8567367706415272 11.700130405362545 152 82 66 3.8082573553118078 9 129 17 133
17746 -3.8737599926154762 -7.7806871292503583 9.0796815289283934 168 92 77 0.038687266889118423 20 328 17 172
17748 -6.2768720502256636 -7.631531885744864 11.268124257973405 0 0 0 2.9354431060096933 16 645 18 392
17749 5.6792993251659256 -5.0772602808457981 9.7951492985291928 184 96 78 2.8493816917738508 18 534 17 364
17750 11.092902687752861 -6.575774389674768 14.985680380238303 0 0 0 2.3564459463931593 9 613 16 673 13 2141 18 666
17751 -6.5171255265496351 -5.7016666451559459 9.9427743926971814 170 83 69 2.5142974826148055 18 528 17 446
17753 7.7238013703842583 -4.4301682709511159 12.572860252890088 0 0 0 1.5720338115222634 9 745 13 2019
17754 2.4432905097636346 -3.8034469441231966 9.2398790976939758 206 106 84 1.6896496056714547 20 61 17 491
17755 -1.3317262142500719 -4.5904503322376655 10.711047277124983 139 79 66 1.947086272591279 11 611 14 1181 17 517
17756 4.4034920824308221 -4.2955484105438408 12.488203745990758 0 0 0 0.47835456022792888 9 838 16 938
17757 7.0004310713794649 -1.6810339408887918 7.2898122100376153 0 0 0 0.62397936656826802 15 1484 18 867
17758 2.8259482844078776 -3.4524722476563814 13.044989924592706 0 0 0 2.2612212305571067 9 1008 15 1736
17759 -3.4375261063347211 -2.2677034423410269 6.825642158995552 0 0 0 2.5998861072480777 20 482 25 1113
17760 -5.7591154170188599 -3.4870003299880259 9.3405702598045295 0 0 0 2.8942209163207018 20 1015 25 1053
17761 -7.5086448244004336 -2.9555763608030876 12.413427408703388 158 91 67 0.64612929207428993 18 1020 17 783
17762 -4.393440900492025 -2.3130629214337142 13.871198964408499 70 46 40 1.9412720143421507 13 1074 15 2242 22 1958 12 2038
17763 -1.298190525605047 0.15375963225443706 3.5644691088483316 158 88 62 1.3225335888653889 19 2449 17 849
17764 1.3347476666301805 0.59425934030952621 3.0686258255634944 0 0 0 1.9171502144881019 19 568 25 2035
17765 -5.169598524181148 -1.9498649352326243 14.067639772221922 65 41 36 2.4955685007550135 13 890 21 1980 12 2139
17766 4.0670525431944373 -0.54281213301618547 15.237056402014375 0 0 0 0.6725214213369638 10 921 18 1269
17767 -2.8785348678243228 -0.19223055171261971 6.2512343550615634 160 88 58 1.5015339584375782 15 2386 16 1480 17 905
17768 -0.93973182735671101 0.29562410538974482 5.9819847643619726 212 133 98 1.3937835324029044 16 1495 17 927
17769 -0.66798587928316355 -0.32860880865619063 15.053525882519446 233 135 93 1.483200084557637 10 1165 17 942
17770 -2.2752686062105019 0.2396356023705348 6.965363131696062 185 107 67 0.540394202498785 18 1282 17 944
17772 2.5190991415922208 0.69929773596520639 15.803315528159651 232 137 105 1.9335664127454191 10 1065 17 968 12 2258
17773 -4.7992559156053343 0.29777368387183495 8.9135715478777229 212 110 81 0.23478458393084259 16 1616 17 982
17774 1.861585193208114 1.7414635666706237 4.3814853675283132 105 61 51 2.082461814900848 13 119 15 2608 12 2491
17775 5.0844216232406811 2.6781645559639102 8.8916111044627897 189 111 90 1.8066269180839931 15 2605 18 1617 17 1076 12 2494
17776 19.3369261045241 8.6070442712497712 44.110069460485484 141 75 59 2.4132119026043837 9 1654 17 1115
17788 -3.6059177885581075 -6.8243066355547484 11.024596045229424 204 98 78 1.277378026059008 27 463 28 174
17799 -0.23310021429576935 -6.3282180517311115 9.680110250676929 246 168 120 1.90162564993292 5 199 28 369
17807 -0.43537858090348958 -6.215713989706261 9.8828266538949343 240 147 106 0.12105738416080036 2 463 28 440
17808 2.316404022290238 -5.3822604064625104 7.4353562963690241 200 99 76 1.0015615356273759 27 429 28 444
17809 -2.6997250782251565 -6.1309848231719091 10.889850379413398 225 121 90 1.8190722006291455 27 625 28 458
17810 -1.6429992935516029 -6.9428613220690005 11.236529688667346 0 0 0 1.3579606360714713 22 730 26 721 20 2391
17812 -1.0172300101087006 -5.9353035599885455 9.9536449768736368 0 0 0 1.2495847717941915 1 733 2 621
17813 -0.072944074680420953 -6.2333312143262081 9.8858499820724539 247 154 112 0.91963232947562101 1 303 28 476
17814 -1.4917545160373729 -5.9132800914599963 10.22933263618585 240 137 97 1.5750819227452917 1 972 22 821 28 501
17816 -0.060099670304374769 -6.1536646591438737 9.92675144240477 247 150 114 1.9172068474272739 2 452 28 509
17821 0.035092925438663672 -5.7641529852052553 9.6384146778438904 240 148 111 1.6695714603167344 27 622 28 592
17824 0.44588150249085418 -5.9298125148589982 9.7771054947651965 254 167 126 1.1062415195103039 1 221 28 606
17826 0.55955830613964153 -5.794373775007017 9.7764203971479766 245 156 118 1.4777853483599155 1 245 28 661
17829 -3.7123183002081119 -3.9608657927838831 8.2495799960172977 0 0 0 2.0770119831400629 6 768 7 730
17832 -0.8071516818509733 -5.443201151729764 10.292662850558591 215 115 85 2.0775598797248973 1 943 28 756
17838 0.62034541100874763 -4.6108382134940458 8.9104738564036463 0 0 0 2.649423130380502 22 908 24 838 21 820
17840 -2.5439645952629411 -5.2214930509363375 11.251184950744982 221 112 73 0.5889493147798126 27 917 28 840
17841 -0.24714642405055509 -5.5396040686581252 10.525846051839157 218 111 90 1.4125198485154715 11 268 28 841 26 1013
17847 -3.1737997031120466 -5.2794838655582721 11.937948669500392 230 122 90 0.89376769753495022 26 1194 28 880
17849 0.34658277805694149 -5.391725622314917 10.10784250229926 227 116 90 1.3411341136929424 27 825 28 882
17854 -2.3269233980366995 -5.1162091752142382 11.434625398004657 229 119 83 1.306464152292697 26 1201 28 931
17856 -1.1430824952517695 -5.0427320685973784 10.587020801834601 206 106 81 2.1739866068725293 1 1209 28 943
17858 0.47543224908078474 -5.2661404888175802 10.116631546810298 208 94 67 0.32212568989964835 27 875 28 945
17860 -5.167379715637173 -5.0209782082533483 13.055530494401268 222 113 82 2.2669312053605255 26 1317 28 955
17866 -0.072898222828336495 -5.0915838020632807 10.246129325495822 217 113 87 1.2537524797628805 27 911 28 982
17867 -2.2570743989414401 -4.77238162158935 10.977694361101376 223 114 86 1.2306257112501171 2 1102 28 990 29 553
17870 0.88824648491883174 -5.0091004831089645 9.6343581550486626 252 174 134 1.6957042372898301 22 921 28 1011 20 2658 5 757
17877 -0.129468128272477 -4.9130680221796244 10.340274946580859 225 123 95 1.2744637819603704 1 950 23 902 28 1051
17878 -1.0787078847039695 -4.7302629846458206 10.656024131885694 193 107 90 1.0572305718191037 27 1009 28 1074
17881 -1.5537273700533922 -4.7040733171605149 10.986938274518861 207 115 93 2.0734067366043081 27 1052 28 1087 29 697
17882 0.46337255088504192 -4.9322938007302586 10.182654131866242 0 0 0 1.0075508888934461 1 745 27 965
17890 -2.4686289544598217 -4.3793254682667664 11.765368813774247 214 112 83 0.76860742433408502 22 1412 28 1206 29 768
17891 -0.16272264718180982 -4.5231439591642069 10.560878773301846 205 105 84 0.27009984658352948 21 1073 28 1225
17893 -1.3151182740433569 -4.2223846768282947 10.787151907883915 205 102 77 0.70680336482792172 28 1255 23 1135
17894 -1.5666270172220764 -4.2588208034013668 11.129442267754772 205 99 75 0.13882480465764466 27 1148 28 1257
17895 1.5561181137725641 -4.6432809892538085 9.9383969312186782 247 177 133 0.01449238393074544 5 157 28 1267
17896 -2.6322221534635597 -4.133780024774544 11.780986955787194 208 98 76 1.4532320122131051 27 1215 28 1279 29 817
17905 1.2393775494221155 -4.3346471300853233 9.5466565131771759 250 175 134 1.9378149562221489 7 372 28 1300
17909 -0.90268795259391232 -4.1992305456232852 11.277792658437463 226 120 90 2.1154266610298444 27 1216 28 1328
17910 -2.1111572366186078 -12.712862977317529 29.134997240881031 0 0 0 0.28712986181826095 11 500 21 1205
17911 -1.9419417627959432 -4.1160594486093434 11.701502611059109 217 111 88 0.2812856607065517 26 1520 29 906
17912 -1.7456706786285359 -4.0511474630872915 11.548242862802589 210 109 84 2.1878596041075276 27 1232 28 1336 20 1644 29 940
17914 0.42017437695995408 -4.2642399703117198 10.457656173480677 184 89 73 0.92029349484707468 1 1051 28 1346
17918 1.494012894154912 -4.2622914733059218 9.8469519604183322 247 177 133 0.33733340050271871 5 1418 28 1381
17922 1.6841663098979416 -3.6048912171872933 7.299845599159501 249 160 125 1.070883122045732 11 37 28 1396
17926 0.71011442747489306 0.2471639680165198 1.3942906263093604 0 0 0 0.76454818067973673 19 2965 21 1154
17927 0.82722546847446043 -4.0642588992768642 9.9828984239912923 183 99 80 0.01493912086859304 22 1228 28 1407
17928 -1.7015104973225723 -3.7908682244842455 11.377430090735125 217 110 87 0.71402445039267315 27 1286 28 1410
17929 1.2868394488437311 -4.0532713936647298 9.5728552923858921 229 126 92 1.5583649302089455 7 450 28 1412
17931 -0.8107079206302944 -3.8300432738881307 10.898215160220682 218 111 83 2.4879529235261182 27 1274 28 1422
17932 1.378323966928751 -4.0015117681501575 9.4531332566860673 249 163 123 1.5779785632041257 23 1005 28 1431 19 1113
17933 0.79905425549852527 -3.9465501279733064 9.8744514635273415 186 95 74 0.73508972802607553 27 1202 28 1437
17941 -0.17928746478999419 -3.7163679962104581 10.675389173083516 208 108 81 1.3635374567570486 22 1431 28 1492
17942 1.2484598770386868 -3.8101114595081778 9.8236473242683182 189 95 75 0.75217354953356796 7 552 28 1503
17943 0.29749993109284545 -3.7158747264673373 10.718504099306164 195 99 74 1.6286776494611868 6 758 28 1509 3 1526
17944 2.7670539568044963 -3.9751832325724883 8.9980699543152411 236 146 111 1.8761703824379219 27 1176 28 1511
17945 -1.0185798289813708 -3.5156968286739803 11.296118953211073 205 104 83 2.1040243466903465 27 1374 28 1513 26 1639
17947 -0.32139563743016064 -3.5471578542005373 10.528200749330827 0 0 0 1.1932922435126265 2 1120 7 825
17949 0.15646219753266047 -3.5967302770483971 10.653953769274032 204 103 80 1.3142224103141498 22 1447 28 1530 18 832
17953 0.11934360976147104 -3.7165161645431648 10.824340044637687 0 0 0 0.6062176221209834 1 1299 23 1268
17954 1.3448634160148818 -3.6926171461408441 10.043941411429408 188 98 78 0.48588324719632658 27 1300 28 1547
17955 1.6935910847084248 -3.7252638735756474 9.9311359107786323 226 182 154 0.5477564106619871 6 617 28 1557
17957 1.4828422213631465 -3.6511363615513659 9.9381056633904006 212 109 82 0.47883250022745516 5 1572 28 1561
17958 -1.5523115676719843 -3.2623909992343973 12.043205265852359 199 98 74 1.3202341185658792 27 1452 28 1564 26 1730
17959 -2.0005960881853588 -3.0732591317968136 11.60338284969065 201 98 71 0.71608373379795276 26 1744 28 1568 29 1199
17961 -1.015885664483122 -3.2647268902193045 11.604327413700167 196 98 72 0.56776087657065866 26 1715 28 1575
17964 -0.8990649732880438 -3.2911761996323694 11.286953891338598 0 0 0 0.78556712064473277 2 1263 8 1078
17966 -0.89182780207867285 -3.258329704614948 11.756594963172097 199 109 85 1.9576049626683556 26 1718 28 1589
17969 -1.8755778878694045 -2.9049168526277609 11.799620500733067 199 102 77 2.3503560342509453 26 1793 28 1605 24 1432 29 1283
17970 1.5286211968384724 -3.40542283024759 9.5443161892053272 197 97 75 0.8882675739442405 27 1350 28 1607 26 1588
17971 -1.4977400884114234 -2.9488051353385631 11.773808287827258 203 101 76 0.28481641335258229 26 1794 29 1310
17979 -4.9251905036483938 -2.2493586467616815 14.375383112712921 198 99 73 0.72907346831409625 27 1603 28 1652
17981 2.7300214586988925 -3.4989494910366052 10.11458672654056 232 125 93 2.0809808612991088 5 2404 28 1659
17983 -0.71228663073918697 -2.8537694598664913 11.487559129035487 199 103 76 1.5254579207713013 7 1174 28 1667
17986 -1.4894561739062901 -2.8846722515601226 8.6856806275096332 0 0 0 0.60732565211637368 2 1316 16 1077
17988 -0.9127203689073472 -2.5993899905930262 11.366523445930298 193 94 71 1.6595216040135485 22 1749 28 1704 20 2929
17989 -0.32364382218244409 -2.9206182108200545 11.044527621475067 0 0 0 0.11677413712812604 1 1707 6 938
17993 1.8820615381354597 -3.0787720521444841 10.07826070915951 254 161 123 1.7333594220325259 5 296 28 1714
17998 2.0715540995776158 -2.983243177977879 10.024537463831848 239 137 103 1.8755077328858483 5 446 28 1746
18000 -0.042264246972100933 -2.6865050142546263 11.087805352028164 0 0 0 1.9205922696147533 1 1693 7 1118
18002 0.12368582439497443 -2.6179366107809385 11.458019761434795 0 0 0 1.5289413164920593 1 1718 5 2354
18004 -0.72533636375237698 -2.3517381870575615 11.942391986844772 182 91 69 1.6048936998461585 6 1080 28 1768
18005 1.9019031205714167 -2.8339736564552758 8.7675930884239186 244 143 104 0.040396924161332573 27 1464 28 1769
18008 1.5118913198645079 -4.2739150388310545 10.556021861115882 0 0 0 0.64910569385622841 18 726 15 1488
18011 0.71466461462912478 -2.522176105691579 10.906988917330601 132 72 58 0.44524286748581932 28 1791 8 1097
18012 1.5773252833315792 -2.6963277063994213 9.4262668455029477 181 84 66 0.30777945203381718 27 1510 28 1792
18015 -0.14193782008584602 -2.3046602040638402 12.171954211936443 143 72 52 0.35115754181281456 28 1803 29 1693
18019 1.8253935706118301 -2.664812194108499 9.6027112201720755 240 136 101 1.8220142939744459 22 1554 28 1818
18021 -0.17751385582904639 -2.1864902353617071 11.331026789239106 176 86 66 2.2497907779560302 1 1901 28 1834
18024 -0.21458017369033616 -2.06283228423499 11.583853043369603 187 97 77 2.0078781210946142 5 38 28 1858
18025 1.6324316188359196 -2.4694230576669263 9.9323570771610825 160 73 57 2.4863330851347847 10 620 28 1859
18027 -0.42722029826997615 -2.0003804447927882 11.855725626336735 180 94 73 0.037590061438730726 23 1682 29 1766
18034 0.012119189235448127 -1.9295130676794505 11.424071000301836 153 80 65 0.21722859796469746 5 207 28 1892
18035 1.6055021120773623 -2.3271913332128329 9.8618780114308819 157 69 48 0.34253120180316615 10 632 28 1895
18039 1.1910461901358576 -2.1006310403599082 11.116129435743595 126 75 61 0.26137773004043285 28 1914 19 2312
18040 -0.13869372505032376 -1.7769057397860641 11.737605948946696 174 90 71 1.680508373763854 23 1724 28 1918 22 1923
18041 0.093416750451667349 -1.8439841898108289 11.411902815688622 135 74 58 0.40677802153936998 2 1384 28 1919
18044 0.071317359461815763 -1.7606306449842086 11.673118306111837 153 73 64 0.30146498887538548 7 1389 28 1944
18047 0.3137761354798087 -1.6299986096322108 11.685382983277037 103 53 44 1.0787388940728144 3 2005 28 1999
18049 0.97410477905436721 -1.7807892672916361 11.271260484035746 118 67 55 1.6521359621632619 1 1698 28 2012
18050 0.72879669472577169 -1.5976883249164444 12.31108566789675 105 52 40 0.54956442592678423 28 2014 8 1312
18051 -0.27804972823345703 -1.4029255109994136 12.180446506825612 146 66 51 1.2118128390407339 6 1192 28 2019
18054 1.296690195269657 -1.8761385446204595 10.240027772046165 92 41 33 1.435168085996442 25 1545 28 2035
18056 0.32127913836443972 -0.63288973669560156 8.1738504703281727 0 0 0 1.694172091070191 17 823 18 1132 13 708 14 690 15 2186
18057 0.39707444778006201 -1.4945183498601369 11.657605245886666 115 49 41 0.68476901593103001 27 1795 28 2054
18059 1.0618856468834721 -1.7538246138484033 10.565313309399432 123 70 61 0.97615378811586628 22 1852 28 2056 20 944 23 1671
18060 1.2331814856107555 -1.804171755007933 10.414479846323442 98 46 38 0.68005896825520062 22 1830 28 2057 19 2728
18061 -0.95025340045290252 -5.7516998363162744 10.090597546636278 211 104 73 2.131657027493723 2 694 26 865 21 738 14 173 16 686 28 579 27 661 28 578
18062 -0.6475900724096173 -3.0054177547558463 11.588980313443761 155 80 62 1.9318059711641473 21 1554 13 2598 16 1164 14 652 27 1494 7 1126 18 954 22 1674
18063 0.19626048418781669 -1.6099446888389883 11.820625487263428 120 60 46 2.7139869405306403 7 1412 6 1139 28 2003 28 1990
18064 -0.32946133180175946 -5.7415982726822818 10.059884720538374 87 49 39 2.3774955693594584 22 810 18 498 3 1045 20 468 14 1808 15 1172 14 2000 16 682 4 435
18065 -1.9082084002935153 -6.1855142592543109 10.11856715987585 166 90 69 2.5936055597872003 8 599 27 524 7 261 13 394 10 515 5 1268 6 416 21 660 20 2877 26 730 7 253 9 576
18066 0.97950669916091704 -4.5982051507082691 9.8410138728836909 127 63 46 2.3015932403871981 26 1250 27 1039 25 939 22 1057 20 1380 23 912 21 929 22 1034 24 933 16 795 15 1362 10 406 26 1239
18067 -3.6104882353013088 -6.2331435506116568 9.7510249569940832 0 0 0 2.588388629688497 2 825 7 315
18068 -1.2242600231144198 -6.3136821397658114 10.072589209707317 247 150 102 3.0012054258953267 1 705 28 354
18069 -1.1441817917139581 -6.2688304831772719 10.199762610493394 243 144 108 1.3246946197411937 21 653 28 415
18070 0.17754291517571838 -5.3279482977710639 9.3391556183554041 242 151 111 2.4741213331737724 7 201 28 693
18071 0.26450534731939196 -5.2688517421821235 9.2507757842299814 0 0 0 1.7086848567311181 2 524 23 689 14 1847
18074 0.18731465713049508 -5.2923913550456803 10.068035222607527 212 110 84 2.6632979149205624 1 674 28 881
18075 1.0780277153913631 -4.7620422756413028 9.7841929538679615 248 169 127 0.14760482048021156 5 1925 28 1150
