# 3D point list with one line of data per point:
#   POINT3D_ID, X, Y, Z, R, G, B, ERROR, TRACK[] as (IMAGE_ID, POINT2D_IDX)
# Number of points: 437, mean track length: 2.6933404940923737
1811 7.0721165282889045 -0.41321600380365592 11.976526049643635 122 117 114 1.3428718461610984 1 1750 2 1423 7 1543
1814 0.10386995356519013 -0.54471325082716104 13.453335811937176 127 114 98 1.0738703750872372 3 1261 7 1449
1815 4.9611675239591504 -0.43747070215051587 12.244182118922629 15 21 27 1.1710756505418989 1 1749 2 1434 3 1117
1817 5.5971919884762631 -0.36763173683695255 11.426614019496157 150 148 143 2.4579733983135723 1 1782 2 1449
1818 5.5905224731098189 -0.354191237023116 11.752978632842536 92 79 69 0.98944119281626519 1 1795 2 1461
1819 -4.065416914528905 -0.40246519850154622 8.3617714802981631 128 90 71 0.98272605426338266 1 1799 2 1463
1823 -3.9537707453057322 -0.37346686562515097 8.1968691972162429 140 122 100 0.64243158282464774 1 1840 2 1479 7 1690
1824 -3.9567502308869225 -0.37239453774124176 8.5697047511884072 83 66 50 1.7603633547346542 1 1825 3 1432
1825 -4.0319291571874016 -0.32752773646704242 6.4729014156437659 106 89 63 0.4041110465884486 1 1914 3 1442
1826 4.7258041238534592 -0.2762023000211411 12.358466704182414 130 112 96 0.24951661292986793 2 1509 3 1231
1828 8.4376315220274414 -0.48297439787491875 33.57986060048097 198 211 220 1.4807331766541039 1 1716 2 1519 3 1326
1829 5.5996513122226661 -0.245373677448327 11.765255952095893 119 103 88 1.961110290224314 1 1871 2 1522
1831 6.0773245243422549 -0.22248857775087941 12.169383304661999 154 150 147 1.0027030376614869 1 1882 2 1531
1834 1.4976078335966971 -0.30387645107595362 15.143894034933048 84 75 68 0.34049209088007076 1 1814 2 1538
1835 1.5496986068771754 -0.28188876259162199 14.822257218877898 57 48 41 2.2507659561806213 1 1832 2 1548 6 1427 3 1359 7 1532
1836 -3.9819177868324744 -0.30994050307467164 8.5843817389357238 131 113 93 1.8638857644223972 1 1896 3 1483 7 1720
1837 6.6830925654666089 -0.14948715861826381 11.783370963840197 148 149 153 1.4296505116565927 1 1932 2 1558
1838 6.9246442832233406 -0.13486300601537143 11.933273209973029 37 42 48 0.87175545370557683 1 1933 7 1684
1841 6.0142583917758277 -0.14923524724561313 11.721229828858768 84 85 87 0.20182317207676137 1 1931 2 1567
1842 8.4919909521043504 -0.20417699253579147 33.863735963299213 205 216 224 0.45068721483973051 1 1779 2 1571
1844 -3.9351235694692686 -0.26892577784319932 14.473275917077871 117 96 79 2.2364140008066271 1 1841 2 1592
1845 -1.0537189666384179 -0.21710547448306503 12.204192761455413 149 140 131 0.63703359953324323 1 1901 2 1595
1846 5.557249900318058 -0.10571850665728094 11.623383879435471 155 139 129 0.98976796229310759 1 1963 2 1597
1847 -4.1400430622271793 -0.23261299782466366 5.5226045972149418 115 102 85 1.8166039045495168 1 2050 2 1599 7 2001
1849 -3.5248026794778888 -0.22148477640410447 15.189662965416611 127 111 95 2.8201759289839052 1 1876 2 1605
1851 8.8535702533489449 -0.04788292770156153 30.575088263926123 120 110 95 1.9552308910564449 1 1833 2 1609 5 1028
1852 4.9217954048695365 -0.12585000590194406 12.372851000856617 20 20 26 1.3766790036570267 1 1938 3 1295 6 1417
1855 5.161407505380609 -0.079160046712643956 12.072622885525384 168 167 165 1.2464379659708726 1 1974 2 1624 7 1709
1856 5.9178418547306055 -0.060998240668524287 11.540795358470127 41 39 40 1.5112538411159768 1 1982 2 1632
1857 6.6915664654625786 -0.0016528272052191981 11.790309152888884 58 59 60 1.3287660735675262 1 2012 2 1645 7 1766 6 1429
1859 4.9043441340209757 -0.021467742957534942 12.300212225470812 37 36 38 1.7046159995550307 1 1987 2 1658 6 1468 3 1362 7 1738
1860 5.7992551173522884 0.022094349066858157 11.6478227513305 132 129 124 0.1260891684723873 1 2036 2 1683
1861 5.8736329324365828 0.026329099823648044 11.434669565296966 39 37 38 1.0893026127023098 1 2044 2 1684
1865 5.2187418491316686 0.052486871776271142 12.165779603472231 128 124 121 0.72264416355796846 1 2043 2 1704
1868 5.0296896176844941 0.068094737438477618 12.148157195359957 24 31 41 2.2621057567984275 1 2056 2 1720 6 1522 3 1395 7 1796
1870 -1.5956824218567403 0.006720441020863715 11.033883983360882 66 53 37 1.2212046432999246 1 2066 2 1748
1871 -4.0075609152952989 -0.062184004076610989 8.5476577780514678 153 138 119 0.4995231126584907 2 1751 3 1692
1872 5.7902059870400651 0.15471314755101154 11.598234001273426 107 104 97 0.86038463804268106 1 2121 2 1760 6 1558
1873 -3.8950280233539374 -0.083199674108239724 6.9922898087556682 76 59 45 1.2663942321056743 1 2148 2 1764 3 1690 7 1986
1874 5.4429606684506 0.15798776646483953 11.365459080369707 93 69 55 0.82073375691649719 1 2133 2 1771
1875 -4.0364256558616125 -0.10372956765800787 6.2235074169234403 134 117 91 0.69644740498828461 1 2166 3 1688
1876 -2.067830022289789 0.03334889855657875 10.802175742329769 39 25 13 0.40127378341519698 1 2087 2 1775
1877 -1.9896325553602419 0.039066786478671262 10.729573175209543 103 94 84 1.345450312480911 1 2097 2 1776
1880 -0.92271814104130967 0.097618931647433183 11.994577185414611 61 47 34 2.1181783014667532 1 2089 2 1789 3 1658 7 1815
1881 1.4225933046995987 0.17699130244530659 14.26921700744286 112 100 88 1.3751090629793838 1 2076 2 1790 7 1755
1883 -4.0010230478871298 0.13297690587327762 15.482125629065299 63 47 34 2.1125295549031615 1 2031 2 1800
1885 -3.2848686129776286 0.09454325960817471 13.100055540877221 158 140 120 0.90276428293012168 1 2065 3 1716
1887 5.6393862271840307 0.24550050154430331 11.706963607924814 141 123 108 0.014760445053269091 2 1824 6 1618
1889 -0.13614379807394592 0.18363638458207607 12.595090280729799 96 79 61 1.823642018207033 1 2128 2 1827 5 1126
1891 -3.9962249607326075 0.2385704340428747 15.23709148789036 143 125 105 0.17149855869425296 1 2093 2 1841
1892 -4.1508819789438194 -0.035055377076535374 6.003633170076494 75 52 38 2.3253018049438454 1 2251 2 1846 3 1786 7 2110
1894 6.0187881432847927 0.3126792513244685 11.626723832861561 61 56 52 0.69777868778731245 1 2213 2 1852 6 1651
1896 -3.9841968571768032 -0.0029948614938669579 6.4174899394837981 163 145 120 1.2559923839184708 1 2258 3 1798 7 2101
1898 1.0706385960925078 0.37851716604795765 14.552549918367404 137 124 107 0.1281455918500374 1 2170 2 1897
1899 -3.9487208543989167 0.033209013535622937 6.5533913702976374 138 125 108 1.5054371972620446 1 2282 3 1838
1900 5.7193259231316649 0.3711183098907278 11.820795661158538 158 148 138 2.2818366182059009 1 2242 2 1908
1901 6.5849757152312263 0.37878845034817515 11.597218280474179 77 75 70 2.2948555799433961 1 2248 2 1909
1903 -3.9009170985633874 0.38791343767526798 15.324887555290278 130 122 111 1.0373824864270222 1 2167 2 1926
1907 2.2139915638460366 0.4647905484971892 15.508096607544665 138 129 122 0.86179584044711621 1 2178 3 1730
1908 -3.9980432887231792 0.043462642011367104 6.3764345384240766 167 147 123 0.27137724323624218 1 2302 2 1940
1909 -3.2818335362388305 0.28887144487934396 13.045123588473066 153 136 118 0.58956731246054672 1 2177 3 1831
1911 -1.8975381864759262 0.26096646966998804 10.773461274354377 112 101 86 2.1387939829337346 1 2237 2 1950
1913 5.7125542718802302 0.45297740879229542 11.775855029977267 74 63 52 1.6434050133176896 1 2278 2 1965
1914 6.8204416775588079 0.51374580479023313 11.907811311388045 141 129 123 0.041426383854927376 1 2307 7 2028
1916 5.179228961491936 0.46612837705581606 11.845624738147643 38 21 15 1.1996896156584469 1 2289 2 1976 3 1675 6 1776
1917 5.9060209770622594 0.45844373017416573 11.391108019277823 56 58 57 1.0014499576716305 1 2299 2 1977
1918 6.9688124805157168 0.51116024948898597 11.993910394123141 95 79 66 2.0653973405130772 1 2300 7 2029
1919 7.1951337551004615 0.52775282004382806 12.189996748627841 50 37 21 1.8277262467138704 1 2308 2 1979
1922 9.1074430857438848 1.5522517991166485 30.876124833192254 93 77 65 1.2318712604486053 1 2240 3 1815
1923 9.3083565848439065 1.5570017918043821 30.837974387758813 35 25 16 0.70465079128434205 1 2241 3 1816
1924 4.7439393671346517 0.54215817092755758 12.202545231550669 87 65 53 1.2529848011774245 1 2319 2 2015 7 2025
1925 5.9066687969534 0.54375357085309872 11.713508089938674 141 137 128 0.73045897679944694 1 2344 2 2016
1926 -4.1771743313196481 0.089593527002086393 5.9387929642862751 113 82 66 1.747363388610913 1 2393 3 1952 7 2237
1930 -0.74157420875135593 0.44677583061838305 11.975663130217445 62 46 33 1.2381199841643054 1 2283 2 2027 7 2004
1932 5.5874648896798664 0.53746134254171352 11.53645362169968 110 92 76 1.3112083813162234 1 2342 2 2029
1933 6.0114148554684457 0.55146939115559868 11.550510044855312 74 73 69 0.1718663831035647 1 2351 2 2030
1935 -3.2471750938118316 0.42061005789594458 12.517619097161798 155 137 117 0.60892547192470659 1 2267 3 1929
1936 -1.0012505151163471 0.48210210604443765 12.212848716048004 96 79 61 2.3235384067618821 1 2296 2 2041
1939 -1.2487195849668096 0.51330009411125899 11.973904260632017 152 135 117 2.4451223098563357 1 2338 2 2061 7 2040
1940 -3.9122460220089086 0.16505169326788868 6.4618426673066134 130 96 77 2.1008148290831778 1 2427 2 2066
1941 -4.1221390201358572 0.35640081204917312 9.9329559384510606 56 43 29 0.61972355447375937 1 2348 2 2067
1942 -0.74430241739150382 0.52075139030745776 11.779392751330812 108 89 72 1.7546290288897797 1 2339 2 2072 7 2058
1943 5.853232312506921 0.62046931536144767 11.269711748950577 107 105 101 2.3472770826181479 1 2410 2 2075
1944 6.1178006108678282 0.62146806601602922 11.238175826842422 111 90 71 1.8029037579868539 1 2411 2 2076
1945 -3.8618206928521066 0.16506730240595893 6.4429654394362661 96 68 52 2.0589229739724679 1 2414 2 2077
1946 -3.7034111162094256 0.37634349117686822 9.9493657434121268 46 39 28 0.63032040545639767 1 2353 2 2080 6 2026
1947 4.671188043465845 0.67181876124778173 12.062767818438362 136 105 83 0.56825994427595317 1 2403 3 1836
1948 -4.0340798437204626 0.16640113429376915 6.2820027897357908 55 39 22 1.5091156209713972 1 2436 2 2090 3 2040
1949 5.830788875052674 0.66601672888373176 11.535619664130992 111 107 98 1.3330282991112192 1 2420 2 2103 6 1895
1950 6.5115919014620545 0.66964352694144158 11.498096484532601 124 104 85 0.27133937678536801 1 2421 2 2104
1951 -1.5552549630128079 0.50328280381629187 10.930678894613504 156 137 119 0.36414408509910279 1 2372 2 2111
1953 5.5731181947906725 0.66524286662360221 11.477562686149 122 103 89 0.2305445479199108 1 2419 2 2117
1954 -2.7890180805128453 0.44091188586604441 10.041649717673014 82 75 62 0.9499309676625618 1 2380 3 2031
1958 0.018209209735628451 0.68860877905383422 12.629652502350554 32 24 14 0.68389729038421543 1 2397 3 1990
1960 5.1739371219575947 0.68956652306047395 11.010687415083265 98 71 51 0.52179582514515133 1 2462 2 2157
1961 3.0974298402529983 1.1415864199470234 18.02877979969422 126 125 121 0.19948165466801793 1 2387 2 2166
1964 -1.9197335688789046 0.55452273312842693 10.516763599866476 158 144 131 1.5473285804580761 1 2438 2 2173 6 2079 7 2134
1965 -3.9702787246468438 0.21645781612744566 6.2861173148086191 88 88 80 2.1800652525483688 1 2493 3 2094 7 2286
1966 6.5106454491873631 0.79972082965970936 11.545320600135295 71 52 35 1.2226737284860265 1 2492 2 2188 7 2177 6 1957
1967 5.6574143579394152 0.7820660532706889 11.193959541454882 90 83 75 2.0402399394667459 1 2513 2 2197
1968 6.0110055805093436 0.80316191477449006 11.486326762022353 92 90 85 0.33421638230831019 1 2501 2 2198
1970 -0.51375163237873023 0.7468518169445072 12.241308516372214 122 104 84 0.45602517248811114 1 2448 3 2076
1971 6.9060359483657301 2.2036795938491252 30.468219488601815 129 124 118 2.2673656889422644 1 2388 2 2204 3 2059 7 1953
1972 8.1823690195523255 2.3189148339276877 32.186055858296982 221 224 222 0.96083202656179822 1 2374 3 2050
1973 5.5574052107020844 0.80809927279588623 11.416194971184316 108 89 73 0.99755395823138648 1 2512 2 2208
1974 -3.8834986277228265 0.28541130678487026 6.4984615552125824 148 138 126 0.31764077758048775 1 2529 2 2228
1976 2.0123054012911932 1.0202241185406868 14.557972449011618 74 58 42 3.1336163884927037 1 2482 2 2238
1978 -4.1473347717018765 0.23695484926547555 5.8050185845382654 126 99 84 0.27693872938707287 1 2562 2 2241
1979 -4.116713255675478 0.24666618154905859 5.8916938276190036 92 80 66 1.8108465419016277 1 2563 2 2242 3 2187 7 2381
1980 -3.8965552374966586 0.27104383125222209 6.3259823092383014 147 134 118 1.6325104253834726 1 2528 3 2159
1982 5.3345001149018918 0.86483084506741348 11.720652896051611 74 54 43 1.4736637763605918 1 2519 2 2252 6 2008
1983 -1.7732143524748867 0.67831619077455996 10.652376192502921 116 104 88 1.9365026292175112 1 2509 2 2260 5 1706
1984 5.8551664414599465 0.86663831571679006 11.211082097420633 77 73 67 2.5525347570979848 1 2559 2 2262
1985 -0.042489721033640175 0.81287410920262082 12.002083469358045 177 160 140 2.6482749863712565 1 2497 2 2268 3 2117
1986 4.5987090016341101 0.89340566702404789 11.744436186127318 152 136 114 0.21819146803511197 1 2539 3 2028
1987 4.7463479700464459 0.86441105663593176 11.423554749064611 179 172 162 2.6874019526892834 1 2540 2 2271 3 2005 7 2228
1988 -2.7050162802342799 0.63673539347258856 10.152333626210998 13 18 21 1.7172042785444648 1 2516 2 2274 3 2178 7 2221
1989 1.0339434340460503 1.0054277849697497 13.694780548893947 150 137 128 0.45850946816551463 1 2511 3 2136
1991 9.3068089913555578 2.4445755661223738 30.441710948443895 118 106 92 2.0338379262457811 1 2449 3 2090
1992 5.475376871507752 0.91116231928938773 11.562691997538497 91 70 51 0.42555631774821823 1 2558 2 2283
1995 5.571344391594832 0.9309056777343605 11.40822208404426 150 134 119 0.096412853739007487 1 2595 2 2301
1996 5.6251668569691358 0.92418069251095714 11.330396710166776 71 64 54 0.2398451367906449 1 2596 2 2302
1998 2.1911051813370519 1.1944642604845657 15.165667865109253 105 101 99 2.0874517637515972 1 2524 2 2313 7 2155
1999 -3.9886256581247834 0.3222337126783727 6.1445572431590598 156 148 137 1.1103369841366624 1 2630 2 2315 7 2400
2001 -0.3075362201518741 0.90389824108260641 12.144504912732341 172 155 129 1.5126929761400472 1 2536 2 2323 5 1766 3 2195 7 2213
2002 -4.1785606485225602 0.29951491207389985 5.7220456194121496 91 60 42 0.31348277460191781 1 2671 2 2349
2004 -3.7981587128160204 0.38988034641190644 6.6575280790330371 119 103 87 2.1560114428869555 1 2631 3 2281
2006 1.4892909463974291 1.1829966910350205 14.073049127675993 72 60 48 1.5982975847793957 1 2584 3 2218
2007 -3.913619584368397 0.40831774431596163 6.7933728868344492 72 64 51 0.047731244988605051 1 2643 2 2360
2009 6.6099210384793423 1.0303891548247841 11.43404173634242 160 156 153 0.94669949589320146 1 2654 2 2370 6 2113 7 2319
2010 -1.8615930446433859 0.83351467193367834 10.969504901916013 81 71 62 1.7132273227449051 1 2579 2 2375 7 2267
2011 2.1808262870753006 1.3034655773299451 15.115078065337483 180 183 178 1.0121096364719853 1 2585 2 2376 6 2203
2013 5.9645694025944831 1.0207775579737655 11.121410740111846 67 46 25 0.4038238408849486 1 2682 2 2394
2015 -4.0164793698305381 0.70810547355755882 9.7625229137660146 32 18 8 1.1384253571315921 2 2397 7 2297
2016 -3.6764655851424086 0.73098444860573863 9.9411128675696645 111 94 86 1.206889074627471 1 2614 2 2398
2017 -0.60659703070742532 0.97534954942264007 11.78813229702569 80 63 43 0.82250598418729848 1 2622 2 2405 3 2276 5 1864
2018 5.8667928253756232 1.074156747733213 11.499339014847621 71 67 56 1.2600607413472218 1 2694 2 2408 6 2159
2021 5.6069794537220714 1.0664732015491636 11.438285965783995 95 80 62 2.6596723123776531 1 2681 2 2417
2022 -3.7987145543677978 0.73769250352048865 9.6958535216264785 82 66 54 0.76207187071223448 1 2644 2 2421
2023 -3.9290989680219139 0.37675665152478138 6.037890541804634 90 77 61 0.66443926861898328 1 2716 3 2348
2024 -3.8861570039560243 0.39987947759922232 6.1165085486339583 161 146 126 0.8182185706207532 2 2433 3 2370
2025 -3.9114706127652084 0.46690312263884215 6.8259021043135188 174 165 156 0.81326550085525684 1 2704 2 2434 3 2372
2027 -3.721178414108159 0.75000747584091876 9.7328495843405083 83 70 61 1.1374606079107403 1 2645 2 2436
2028 -3.2932173856971581 0.7962538568527765 9.960845678458023 34 23 14 1.2040993902013959 1 2659 3 2375
2029 0.024598458653942622 1.0914510907726125 12.22375764919143 97 82 63 1.8527172763983497 1 2677 2 2460 3 2313 6 2282
2030 0.21662137728504074 1.1115074300647851 12.369123134565173 174 161 148 1.5524673649802228 1 2664 3 2314 7 2315
2032 -0.94860744903066085 1.0354216940271272 11.524246767252672 138 128 118 1.2705902615381579 1 2688 3 2367 5 1955
2033 -4.1404465880432975 0.39134719840218118 5.8806243495650499 67 53 42 1.0720805011848447 1 2767 3 2401 7 2509
2034 -2.0670097552493276 0.87569783369376553 10.248761758521841 76 65 58 1.597832446711636 1 2687 2 2481
2035 1.1892945816950784 1.2936528027414789 13.600612263490051 26 16 7 1.1132707198706802 1 2689 2 2483 3 2345 6 2296
2037 5.339200288240832 1.1439628062586022 11.354993544685493 26 10 2 0.38652313421527806 1 2755 2 2486
2038 -3.8809262533612516 0.51815144562823379 6.9353541702975887 96 87 70 0.77935059008608631 1 2760 2 2488 3 2419
2039 -3.7712347948199763 0.86089985392723611 10.12605871459842 63 47 39 0.75147020932304454 1 2705 2 2504
2040 -3.5292156368439289 0.86057149329726879 9.8995567572266339 124 109 97 2.1470742686963553 1 2731 2 2510
2041 -0.32110559454720972 1.1604806862324826 12.207251404185701 151 131 106 1.0628248713724828 1 2709 2 2513 7 2355
2043 -1.0771969171874072 1.095036335739856 11.565740681823245 45 36 27 1.9417696786330534 1 2724 2 2527 7 2376
2044 5.5924390473747385 1.2076982416308928 11.379954867333163 136 119 101 1.4325076273475597 1 2786 2 2535
2046 -0.56880219515075814 1.1470670993876393 11.772057776956515 69 53 36 1.2901750027855434 1 2749 2 2541 5 2019 6 2376 3 2409
2048 -4.0899665203296216 0.46317435145676661 6.0526445802767235 35 38 37 1.5669678458495906 1 2818 3 2473 7 2548
2049 -3.9617126827589577 0.46192158056928662 6.0580578884897411 82 70 56 1.4678680780498827 1 2819 3 2460
2051 3.4791446897474949 2.0304889587611483 18.708951263951565 30 26 25 0.53365411986110534 1 2735 3 2431
2052 4.4473286627352335 2.2522056484883191 20.352810019891677 53 54 56 1.868381371242875 1 2751 3 2432
2054 6.6108019010235708 1.2922793559902861 11.375210999424983 144 143 139 2.4263167628783635 1 2837 7 2460 6 2319
2055 -2.1142394552966297 1.0024106214964301 10.162945246745721 93 85 74 2.0701419446125162 1 2793 2 2597
2057 4.3325845689784055 1.3661701582652275 12.079677657482728 198 172 146 0.54736296192811562 2 2601 3 2400
2058 5.3253754003692846 1.3141225492323376 11.567228880270401 114 87 66 1.9366689797202046 1 2836 2 2603 6 2346
2059 -4.1242798827149141 0.49177767259379002 5.8390624542727148 90 76 63 1.0027849259285968 1 2891 3 2542 7 2615
2060 -1.8809805747309947 1.0616597080669308 10.397915951472237 146 125 114 1.7738650895395445 2 2607 6 2480
2061 5.345087062002019 1.3132946811845705 11.331668086607719 35 18 8 0.089532644500809347 1 2862 2 2617
2062 2.189941126029749 1.6875688102687967 15.063867623941126 50 29 16 1.9107248914417616 1 2795 2 2627 3 2469
2063 5.6992064821599033 1.3581891477478349 11.519038698530984 175 163 147 0.0033384637191277017 1 2880 2 2630
2064 5.7040110061444418 1.3107570206781536 11.148659212787571 154 150 139 1.0949440818473204 1 2881 2 2631
2065 -3.8651805217133881 0.62995379933478612 6.9521950353458362 165 148 138 0.23487576079049816 1 2867 2 2634
2069 5.9530074323440934 1.3397605145007283 11.041548096994664 131 110 91 0.52431619019623188 1 2912 2 2654
2070 -3.9328554338798134 0.58964358704178554 6.4868174503041081 51 39 27 1.5083426515315446 1 2906 3 2551
2072 4.8567330409356178 1.4165058111915858 11.747964273521561 175 179 178 0.87411435625385936 1 2902 3 2452
2073 -0.99519137927507118 1.2665518257742432 11.409123440321643 77 67 58 1.3328410960563053 2 2669 3 2538 7 2480
2076 -1.165838553008212 1.2498150253934324 11.157520892153693 76 62 49 0.08170175409764048 1 2873 2 2685
2078 6.0405071912019368 1.4358193497632772 11.380895082914551 91 87 85 1.4792901505820035 1 2933 2 2699 6 2436
2079 -3.980801641370765 0.56737993697729971 6.045391146205719 84 72 60 1.3999255539891522 1 2943 2 2701 3 2602
2080 -4.1681960187395122 0.5346211915475142 5.7356699392356294 143 102 84 0.75162101648066704 1 2960 2 2708
2082 5.6937854933994938 1.432970070793067 11.100942399825204 126 122 111 0.0055685622438261667 1 2957 2 2717
2083 -1.034444286873234 1.3307467606026455 11.328175864491719 132 119 107 1.3582673221984733 1 2909 2 2721
2084 0.82818303562679507 1.6010073565349039 13.009164846239369 64 45 31 1.2900236340961191 1 2917 2 2724 6 2536 3 2597 7 2515
2086 5.465824333198456 1.4434680950005607 11.081919871998851 78 59 42 0.50461745684972903 1 2967 2 2729
2088 0.036011586758773646 1.4945269658004632 12.388627649147377 153 136 110 2.4957515396172916 1 2915 3 2583
2089 6.0551280352602825 2.79667769519425 21.315665795415999 35 28 22 0.49282872889252471 1 2897 3 2590
2092 5.2853199282452969 1.5110713935787821 11.458860156691115 160 132 111 1.9697266687072503 1 2966 2 2749
2094 -3.6917247530666408 1.1160947372566319 9.8098180647539834 16 11 5 0.35199160668140783 1 2939 2 2756
2095 -0.64985104889495182 1.4204818506580861 11.568734285498351 100 82 62 0.57398546794679528 2 2762 3 2633
2096 7.0223731981987445 3.0080816790512128 22.283021907284386 98 96 81 1.3818261792015256 1 2918 2 2764 7 2466
2100 -0.53360663872826897 1.1602755673326126 9.3512894924371555 57 45 32 0.58012828485696688 1 2988 2 2779
2101 4.3628816003881417 1.5963281453047442 11.813347073384408 135 112 91 1.5022029789789968 1 3003 2 2783 5 2090 3 2600
2105 1.7248240853587236 1.8442862506423365 13.889907730488577 178 162 147 0.31363392701774984 4 2754 6 2590
2106 6.2376460762897556 3.065839449808164 22.066658807764188 106 78 55 1.2599479681941657 1 2946 2 2797 3 2651
2107 5.682921787851285 1.5701165159430213 11.052119053401078 78 73 62 1.2518953726392845 1 3053 2 2803
2110 5.2160535583282854 1.5795762447417061 11.048642557352247 118 95 80 2.2247425515517891 1 3062 2 2816
2111 5.3049237702693173 1.5625772084487444 10.979561960704391 63 39 25 0.1990565422161153 1 3051 2 2817
2112 5.6329860310484019 1.6148030625328242 11.26909779331249 21 16 10 1.3527710306911509 1 3052 2 2819 6 2593
2113 5.9114730541505258 1.6083315668350617 11.124088447557073 118 114 108 0.72160088817429457 1 3063 2 2828
2116 4.3827418789191315 2.7635172028450175 19.499796417074585 64 51 37 0.90907640164796089 1 2991 3 2699
2117 5.0445510561501123 3.039745747885461 20.924211643436792 118 103 92 1.833750545667127 1 2998 3 2733
2118 6.0516424523239776 3.23423769414187 21.965578144149369 130 100 80 1.9023156979882729 1 3020 2 2851 3 2734 7 2556
2119 6.3323994000501473 3.2414633798742702 21.975876241953959 145 124 102 1.6158851981009295 1 3021 2 2852 3 2735 7 2557
2123 -1.0567438564547018 1.5282664939560975 11.232522953901265 154 143 134 1.8460939424206515 1 3041 2 2870 3 2752
2125 -0.41288583963184217 1.3365743218695516 9.554888075400866 67 57 48 0.83072789197524899 1 3091 2 2878
2126 5.7020257293796766 1.7028321628712224 11.027408093968464 145 141 130 0.43705599506150894 1 3150 2 2884
2127 5.5113075251857051 1.7068226710048358 11.015999052745908 47 40 32 1.1657345353029898 1 3149 2 2893
2128 -1.0670000763436878 1.5627941096740092 10.987274174857742 40 33 23 1.3498356693926747 1 3090 3 2801
2131 -3.9834836673895344 0.75391758351786375 6.0620504815589724 130 120 108 2.0235431194364235 1 3158 2 2907 7 2799
2132 3.7416769718507621 2.9000297886114406 18.489115588359489 55 45 35 0.054559340574793058 1 3107 3 2834
2133 4.2389109730983074 3.1119408827028026 19.667022641646337 134 117 97 1.2351111187082684 1 3108 3 2844
2135 4.2277060655473706 1.981866013696052 12.549408332835945 25 22 13 1.4246013110837232 2 2939 3 2806
2136 5.8118374343601165 1.8125736733171709 11.195206444926642 153 149 138 1.4466397633814525 1 3184 2 2941
2138 5.5693872271466978 1.8552913271342626 11.38065435891235 37 33 28 2.0123448115120204 1 3191 2 2952 6 2730
2139 -4.1649619870278523 0.71924076109259438 5.6886560564069075 126 117 107 1.2802812844658991 1 3180 2 2954 7 2849
2142 5.1703444242644689 1.8324248384732238 11.076874398744549 42 34 31 2.7318234508875681 1 3204 2 2968
2143 5.2312729964011666 1.8195458084623644 11.042232596031985 87 78 71 0.4682119051833814 1 3199 2 2969
2144 5.6126876844652802 1.8470849808875294 11.173176384893868 71 64 58 0.12594866079434536 1 3200 2 2970
2145 4.4010043698484544 3.212450724965707 19.629199654729657 79 65 52 0.7537514290704429 1 3153 2 2977 7 2684
2146 4.8062949316963053 1.8556338590840429 11.295398077704599 10 8 9 1.7443570016315253 1 3190 2 2980 3 2836
2147 5.8953134821700326 1.8513754537647231 11.039251371121923 116 111 103 1.4622774796116687 1 3216 2 2983
2148 -4.0290382220839769 0.91209344410745186 6.6943314625943868 53 43 34 0.64815775107102302 1 3186 2 2985
2149 6.0064129478299115 3.6532706684961664 21.742734128016483 177 158 139 0.84379577857008892 1 3166 2 2994 3 2911 7 2709
2150 4.410337707986737 1.9495177825083405 11.665228349114605 35 24 18 0.85707852959863595 2 2999 3 2883 7 2801
2154 -3.9454560256804219 1.4407405710195309 9.6097946249222481 23 19 18 1.7044223506666079 1 3187 2 3019
2155 -3.9566561980734196 1.5359447147462442 10.139223827141041 18 18 20 2.2637232719733369 1 3194 2 3021 7 2792
2158 -0.47086908211996675 1.4552521210030478 9.0576369244266655 88 87 82 1.4369507683527281 1 3227 2 3033
2160 5.5194834544235603 1.9944690016583602 11.320188960416051 80 66 53 0.21670879819933214 1 3265 2 3045
2162 5.4728406269501466 2.0217417746536741 11.382831825393595 58 44 31 0.16516248445254983 1 3280 2 3048
2163 -4.2188575765160481 0.78098523975471712 5.560436549600845 165 169 170 0.68767986492919475 1 3269 2 3049 7 2922
2166 0.63117666452437304 2.2225776869342377 12.88015250841203 30 19 9 0.79881780081004683 1 3253 6 2924
2167 6.0297911932155088 2.038572367631629 11.215051867265565 62 61 59 1.0878852417596527 1 3318 2 3066
2168 4.2861832664535893 2.1024573803903461 11.694938864654285 83 67 52 2.0566176219421308 1 3302 2 3077 7 2883
2169 4.5099114850320374 2.1452261072688166 11.914074062813951 64 47 31 1.9547718219010572 1 3303 3 2983
2170 5.4764500290243676 2.000442174876178 11.004888713431079 31 17 6 0.34430930628218359 1 3316 2 3082
2172 5.1538571540311846 2.0359878625872749 11.131424207966472 46 30 17 0.70920570268553518 1 3332 2 3088
2173 -4.141673469124644 0.81943042215998252 5.5578393797371106 164 172 174 1.0064216861580821 1 3324 2 3095 7 2968
2174 -3.6397673403381754 1.5939832457841689 9.7032364356054046 52 42 29 1.671877010895884 1 3284 2 3101
2175 -3.0838035770621017 1.6274245179088944 9.8133812915852836 18 13 7 1.4849511003172213 1 3288 2 3105 6 3003 3 3061
2176 -2.937030779525911 1.6454931466102194 9.9291808154862284 10 9 7 1.4556611467586003 1 3274 3 3062 6 2993
2177 -3.9862673590398332 0.9217706721395027 6.0358494515377261 9 11 8 0.011328098527068654 2 3114 3 3074
2178 6.5421294197759945 3.9024304772297489 21.016752933348258 36 29 13 1.658482408453827 2 3121 3 3050
2179 -2.6220876650959655 1.6829136182505715 9.9433811402993282 39 30 20 1.6720346984613972 2 3124 3 3080
2183 -2.0378047711592515 1.7839854141401326 10.278835927861625 82 69 55 0.96427058266737353 1 3326 2 3147
2187 5.7493429105414746 2.0845618479284922 10.965401578529873 86 74 60 2.1276483348384709 1 3370 2 3154
2188 6.0443854703916013 2.1439401142191139 11.210302784606782 113 115 112 0.0018638240749462242 1 3385 2 3155
2189 4.2016601993248814 2.1254769026639533 11.242941636635036 109 92 74 0.58665678609049698 1 3368 2 3163
2191 4.3234615462456256 3.6406119999587605 19.305538631505655 169 156 140 2.6912178833477727 1 3313 2 3168
2192 5.1906376230353306 3.8213354806923352 20.028710785217449 33 21 7 1.120314517637675 1 3337 2 3169
2193 5.488819849756525 2.1160219437720849 10.941544208712846 60 44 29 0.65795011454114505 1 3402 2 3171
2194 5.5445566983674137 2.1170017708218998 10.901297718891096 101 88 72 1.4586606879478365 1 3403 2 3180
2196 5.0670791319279456 2.0670904533519763 10.604271970268519 107 89 69 1.1504962392026572 1 3410 2 3190
2197 -2.0736904808506207 1.8142606963913945 9.9924447097951408 28 15 2 1.5934269547083917 1 3389 2 3208
2200 -1.6033789446188311 1.894789583178301 10.178035734254836 37 27 17 1.7156235967835929 1 3407 2 3228 6 3105
2201 -0.54761139985471707 2.1976764214550362 11.595954165625864 37 21 8 1.7659698716971592 1 3408 2 3232 3 3192
2202 -3.9771540791417208 1.0090492072394059 5.9777544121329589 167 167 167 0.2595695154052543 1 3434 2 3242
2204 4.0445187319483118 3.7264082312792319 18.760786193247206 62 49 32 0.015257984350050418 1 3399 3 3203
2205 4.2534554055122991 2.3705280053646725 11.755234716231937 140 123 107 0.3997397396180189 1 3449 2 3249
2206 5.495802393605338 2.3228771163539199 11.243556547919296 125 107 87 2.675532425708588 1 3490 2 3254
2208 5.8353173622658012 2.2985713433341992 11.143726239266178 124 117 107 0.24255877723757591 1 3474 2 3258
2209 5.7876552077923353 2.2285562323788026 10.740941115950722 74 76 75 2.960283205133913 1 3501 2 3259
2210 5.2607474717110767 2.335122891497885 11.276785314031999 95 83 71 1.2698359935574306 1 3489 2 3268
2211 -4.0603023933337745 1.191832322360608 6.7806457819403461 121 111 99 1.4354116752735668 1 3445 2 3270 3 3230
2213 5.3078479394423344 2.4883527651308022 11.959229452728232 80 68 57 0.70011485037948173 1 3488 2 3278
2214 -4.2895023677666915 1.7666413109469206 9.5342457994545864 30 21 12 0.87239650603574859 1 3446 2 3290
2218 -0.43391830524798369 2.3031105151788553 11.411646993691987 43 46 39 0.91198104782304046 1 3481 2 3311
2220 4.1975399405244955 3.9252630402754023 18.561402859595102 143 127 109 0.18840444118579258 1 3483 3 3286
2221 -1.8209536241497764 2.0811404308081154 10.409700839853045 106 87 70 0.1872036951995662 1 3493 2 3320
2223 2.669038061883787 3.4186181532809736 16.266744905212487 31 31 7 1.8003364177208305 1 3482 2 3322
2226 5.4451228628409041 2.385105066822403 10.971444946031932 61 45 29 1.2467312234257615 1 3552 2 3326
2227 5.6040398191249672 2.3308171446102492 10.681384224367747 163 158 152 2.2994328016921202 1 3563 2 3328
2228 5.7349600358113673 2.4700489790812927 11.30101085822381 119 107 95 0.4620633847828155 1 3553 2 3336
2229 5.2591399463454485 4.3093360979848141 19.947908466003739 112 93 76 1.8448777123821414 1 3505 2 3340 3 3306
2230 -3.9923039492516135 1.1186473387444231 6.0003737465163702 11 13 12 0.85632568805527198 1 3532 2 3346
2231 -3.8333782502841567 1.8859412390218113 9.5751335037050342 140 124 111 1.0583275386435829 1 3512 6 3254
2232 1.1696743327957186 2.880617864066755 13.386793521987444 93 76 63 0.38852029936277127 1 3537 3 3340
2233 5.978116908489981 2.4414367373619044 10.803663446881954 185 182 177 2.5828947090618071 1 3602 2 3367
2234 -4.0771728514322882 1.3028542276131805 6.7698168619363299 131 121 109 1.8818867065769236 1 3543 2 3370 7 3137
2235 -2.3579646522810722 2.0277368310426338 9.8407285425800417 83 67 51 1.7270023166463693 1 3549 2 3373 3 3335
2238 5.275940462554475 2.5476801445297617 11.27160478168128 14 10 7 0.87667992476073775 1 3595 2 3384
2239 5.8310232887049676 2.5268098756458217 11.079091705660996 137 130 122 1.7552919267052483 1 3615 2 3387
2240 5.9860037305461624 2.4984810858935314 11.017982182626518 88 90 88 2.0546210801026823 1 3596 2 3389 6 3231
2243 5.3008482611434848 2.3969748844575056 10.509564851326788 68 56 44 0.4273046987661927 1 3613 2 3396
2244 -4.1827587188025843 1.0605129925933228 5.5747989468657071 169 171 166 0.96325170816928229 1 3584 2 3397 7 3162
2246 -1.0168479380178463 2.3663288592987013 11.014534219132496 181 160 141 1.5633078816598422 1 3578 2 3406 3 3365
2248 -3.3970675904188852 2.0075668528980506 9.6404184034700773 96 77 60 1.1185080339986266 1 3576 2 3412 3 3382
2249 0.10229042849824942 2.576548933684871 11.737563520774362 95 81 64 0.18500987428633767 2 3415 3 3387
2251 -0.30415635375772898 2.5942305458544168 11.709092189507622 81 61 40 1.0673378654673213 1 3598 6 3312
2252 -0.13144112032828659 2.6703116766752246 12.025744766595478 162 138 107 1.2124701917704332 1 3599 3 3399
2254 5.2414672111058636 4.5670139889807624 19.746815505636906 98 80 66 0.69756702821212158 2 3438 3 3422
2255 5.5773500586512563 2.6224976964722071 11.154480581182622 159 147 133 0.84048010079603142 1 3658 2 3440
2256 -0.79008035008096678 2.4745153416531882 11.128640338672053 78 61 42 0.78775505882871999 1 3606 3 3418
2257 1.0266669730075497 3.051236481956014 13.316610740874708 85 73 61 1.6550088357044617 1 3629 2 3453 3 3437 6 3339
2258 1.1009259849188078 3.0246995038658828 13.198675652105734 88 75 61 1.6344619541593846 1 3630 2 3454 3 3438
2259 1.5175471856726224 3.1166922202941221 13.567472669365765 135 109 86 0.95584667187264127 3 3439 5 3247 7 3176
2260 1.8014062810630145 3.1310395990618285 13.518815659815186 113 101 87 1.710666385072225 1 3632 2 3469 3 3448 6 3348
2261 5.1784318288545572 2.8019368379290266 11.757127306918264 139 101 86 0.56189285853934801 1 3676 2 3470
2262 5.352108703749928 2.6593542123396881 11.085573135192876 172 157 138 1.9141207264156259 1 3696 2 3471
2263 5.7243340239451994 2.704351666183427 11.251292544659551 91 82 73 1.549009638306007 1 3697 2 3472
2264 5.5543467662142545 2.5877243785718891 10.776834345344843 82 73 66 0.85628525324551585 1 3698 2 3473
2265 5.8497455527515987 2.6586688485244019 11.054924824264509 163 159 150 0.88794515504723748 1 3699 2 3474
2266 5.9252627940400142 2.6281331895823734 10.892568547941686 89 89 87 2.4234197262800237 1 3709 2 3476
2267 -0.20928164921229564 2.6655381566161283 11.647582464920101 131 114 94 1.5544831827846521 1 3655 2 3479
2269 5.2909671052098357 2.7119442386319004 11.237335247159923 120 113 103 1.4728267119881693 1 3695 2 3487
2272 1.0264890740869668 3.1527889599393757 13.266866697269919 84 70 61 1.9926931746512384 1 3690 2 3508 6 3405 3 3515 7 3222
2273 4.8855989421071575 4.7679532111216396 19.634170901964733 38 32 16 1.5816568898297874 2 3512 3 3531 7 3224
2276 5.8057044786412195 2.6550878519154142 10.687585796367749 111 112 107 2.9133770250891029 1 3757 2 3519
2278 -0.095314928548244915 2.8034152433257082 11.815284223387566 44 27 8 0.22620907153678449 1 3707 3 3526
2280 -0.62824317455264089 2.7077525048753039 11.472630450849415 174 161 145 1.0595359575445003 1 3703 2 3536 5 3371
2282 -4.0729162467758266 1.4540943717892416 6.7101963238515561 164 154 142 2.1668590553970879 1 3702 2 3543 3 3507 7 3248
2283 -4.0196014499551307 1.4615250470513532 6.7184639848294614 127 117 107 0.92770551036028126 1 3711 3 3508 7 3249
2284 4.9704062468115975 4.6438354683809324 18.837953777174842 98 82 66 0.061885507531483544 1 3716 2 3545
2286 5.4137412393249145 2.7748507859763603 10.994752414404502 141 131 119 0.83463993350828924 1 3772 2 3554
2287 5.6195338688793868 2.6971353168097667 10.675841308290526 140 132 121 0.24913605931151783 1 3775 2 3555
2288 -4.0259930910885924 1.7734172670018202 7.9474124291535633 166 144 130 1.3539055403429407 1 3712 2 3557
2289 0.85104729906765364 3.2006168593717499 13.188527310807704 66 52 43 1.4370603590150335 1 3724 2 3563 7 3261
2290 5.507082938436616 2.7557674347912284 10.881451550196449 97 90 82 1.4845046723778683 1 3774 2 3568
2292 1.0738083244451804 3.2450088833515141 13.222904877619598 77 65 51 0.58236570712965996 1 3742 2 3573
2293 5.185333892651502 2.8457707068922926 11.001339418238853 4 1 0 0.047994308537090621 1 3817 2 3590
2294 -4.1262506853001373 2.1970609642060328 9.4122766286968531 106 85 66 2.2176520982515329 1 3749 2 3593 3 3587 7 3277
2296 -0.77291719705431394 2.7650039528211594 11.142642655245192 83 66 46 1.6566993977816227 1 3786 2 3617 6 3527 7 3316
2298 -4.1398856140211402 1.2013463247021108 5.4109944316248848 183 172 154 2.0818033684281438 1 3777 2 3620 7 3313
2299 5.4148899557480901 2.8959515956813635 10.967400906530019 154 146 135 1.9005234210089794 1 3844 2 3629
2300 5.369653491767485 2.8214902103719033 10.686611723383891 107 98 89 1.4318768328804494 1 3845 2 3630
2301 5.4502331279170768 2.7895596275867529 10.56110407935603 95 88 80 1.0052399950148851 1 3847 2 3632
2302 5.8597988589820034 2.9145295797285407 11.015173778022094 104 97 87 1.1107965956886399 1 3848 2 3633
2303 6.0667186203986097 2.9334203630888656 11.076684452811566 166 163 154 0.82161528581921528 1 3849 2 3635
2304 3.5610238636676494 4.6675361479629807 18.12414202490254 60 58 45 1.7233290453188221 1 3789 2 3642 3 3642
2305 3.9619902284287187 4.7419556837186372 18.319824219922832 41 27 16 0.41036756544059583 1 3803 2 3644 3 3650
2306 4.0403812300186619 4.6979827484190499 18.148712266579587 30 18 6 0.44986877614192111 1 3804 3 3651
2307 5.2121173518279944 5.080423269184414 19.526184110407439 36 22 9 1.9750173563879563 1 3805 2 3647 3 3653 7 3340
2311 2.0659603793419272 3.641972560529191 13.887086763602872 157 136 116 1.2740183371742657 1 3834 3 3692
2312 6.1264362111128667 3.0004618682737361 10.992321794247895 129 122 116 0.69065520509215417 1 3912 2 3688
2314 5.878385591318172 3.0292272934756981 10.991860901525438 114 109 103 0.088147193813690697 1 3926 2 3701
2315 5.3313858896547659 3.0965205859589497 11.216561217385378 109 106 100 1.6582823636948474 1 3932 2 3708 6 3608
2317 5.6080081920368956 3.0536561280161636 11.035599282489386 91 82 73 0.85302594290107869 1 3935 2 3712
2318 5.6497119156910127 3.0364467797228056 10.970836255948226 122 115 105 0.64712176873095151 1 3936 2 3713
2319 -0.07533207806704853 3.0372419712940695 11.44998240711244 105 92 77 2.1085818172198203 1 3889 2 3721 3 3734
2321 3.7432844803237 4.9339015578007306 18.099664480192072 80 64 46 1.1666821787987656 1 3903 2 3747 3 3770
2322 6.091952277604717 3.0922961662490973 11.063740236248703 167 160 152 1.8346522160125827 1 3945 2 3748
2323 -4.1294587974509804 2.2307521422744845 8.8436268046620228 78 70 62 1.679727022017947 1 3877 3 3719
2324 -4.0023640649913883 1.9760817567877851 7.8126913378737601 152 133 118 1.1839448737294529 1 3915 2 3772
2325 5.0037862248752303 5.146757267773638 18.404447949750473 78 40 14 0.27781345839912297 1 3944 3 3821
2326 5.5179546531689523 5.0848461158586167 18.087825874917613 39 30 18 0.99044408177382315 1 3953 2 3777 3 3832 7 3471
2328 4.5273410116239656 4.57329300516973 16.206678738151698 92 77 67 0.65711237340143924 1 3963 7 3479
2329 5.9670708075608836 3.1113507180147582 10.851994476814989 136 131 125 1.309569740242662 1 3990 2 3788
2330 -0.77404755006213399 3.0684793130645303 11.262934650502469 83 64 47 0.51132810358748804 1 3947 2 3793
2333 5.4120867830496486 3.0549514772202802 10.624123653194607 92 84 73 0.44868517122238882 1 4000 2 3798
2334 5.9313503681423478 3.2552688985198999 11.303173978573636 109 102 92 0.26002516181456381 1 4001 2 3799
2335 5.6382486108958014 3.0586963921462327 10.60029392776381 97 92 86 1.068502854624632 1 4013 2 3800
2336 -3.9818216586171955 2.3130347424708164 8.8934068270385893 31 37 27 1.8895643981595434 1 3939 2 3803 7 3448
2337 1.6520896991044518 3.6643079414278978 13.117278707667779 157 131 104 1.1706325226555776 1 3961 2 3809 6 3706
2339 4.6255452551881158 3.2080909073409565 11.099122124114512 13 18 21 2.5859065296901544 1 4018 3 3877
2340 -3.9615657167163718 2.465565349844316 9.2323010969876798 84 80 71 1.8491794374903736 1 3970 3 3841
2342 -2.8239777096687533 2.6183867115856638 9.6361919093715009 62 49 32 1.1340843865685257 1 3984 2 3838
2344 -1.1834605578979926 2.9814263430445394 10.658307849443061 126 105 86 0.82066532937389847 3 3866 6 3747 7 3511
2345 -0.80737462879055499 3.0925840596201954 10.985975361072896 125 106 89 0.44457348647387873 1 4006 3 3873
2347 4.65292706136999 4.7157410724402 16.283930219526496 80 71 66 0.68453767555586875 1 4008 3 3898
2348 -4.0925148612078894 2.3795343786631484 8.9201004012537872 82 89 95 0.080529617076673443 1 3982 3 3838
2351 6.2055634470832182 3.3927607212361157 11.228081393739894 82 79 74 2.2775727952264884 1 4108 2 3894
2353 -4.2194209344917546 1.4518311476347108 5.5751708180362147 125 104 83 1.9871441953167497 1 4016 2 3924
2355 3.7935677670125298 5.4282333479258105 18.279272426715998 74 64 52 0.884336601139872 1 4071 2 3944 3 3967
2357 0.77787832602786544 3.8391753585918944 12.933915671185773 35 21 10 0.71458751759280537 1 4098 2 3977
2358 1.5815200749217628 3.9318216394213836 13.141565239371793 32 33 19 0.025535988349924078 1 4105 3 3999
2362 4.7425088650003797 3.6143067736265024 11.529869659020541 74 29 26 1.3215666157756336 1 4193 3 4131
2363 0.91559883264136799 3.8499312118958753 12.696565613637217 104 95 86 1.4980020833160754 1 4138 3 4050
2364 1.0270799566495372 3.8495302024852291 12.68947683465603 157 146 136 1.4176191023235649 1 4139 3 4051
2366 4.2348594183474351 3.5588130284600217 11.388290867306162 154 145 138 0.078562197952075336 1 4192 3 4122
2367 -0.17408681589261729 3.4555100471184681 11.339926871616585 46 19 12 0.75742121919114447 1 4178 2 4071
2372 2.4986132855180907 1.9320949597765755 5.9111907732887694 154 161 169 1.5495202475925391 1 4335 2 4144
2374 0.74460282185500981 3.9128511429702431 12.102833213590939 35 36 31 0.69033215730965913 1 4319 2 4212
2375 -2.6565410134252523 2.2652913621798927 7.2911078056273517 42 116 93 0.25326832073140781 1 4304 2 4218
2376 4.1401846020367445 3.8542246342986028 11.573307833675997 18 9 2 1.8996446419884785 1 4355 2 4227 3 4352
2378 -0.27458563403628683 2.8323042975615196 8.5076842383208167 84 74 73 1.1689729242826867 1 4412 2 4315
2379 -2.5620702110589231 2.3211044525906841 7.1259487734409657 58 101 97 1.6446092253714037 1 4408 2 4351
2380 0.27713307195035786 2.97921703567958 8.749085699179556 66 59 51 0.83515968560018483 1 4475 2 4358
2381 0.15330856388141872 3.0125398796239775 8.7436016053764973 135 129 123 1.590471347825094 1 4494 2 4401
2382 -2.6862680223804984 2.3542501836682943 6.9635704008419186 14 29 21 0.65397443456945648 1 4521 2 4473
2383 1.7282614686368292 1.864621215371232 4.9797850421579462 47 40 45 0.33516935377833024 1 4679 2 4559
2386 -1.0759175769706129 0.28503802776617521 11.543123991140003 28 21 14 1.3847167846747503 2 1931 4 1031 5 1264
2387 0.17530724694216457 2.5522038912795253 11.598699693895004 83 74 63 0.96119062737655148 2 3416 4 3753 5 3187
2388 -5.9575426612690521 -4.6585068846214899 18.315001368563504 206 215 220 3.1176824137331347 1 295 2 161
2393 11.157413392260134 -3.4797466974776881 31.389738091966802 169 181 191 2.1024333786547804 2 904 3 674 4 898 6 699
2396 -3.9192689792175019 -0.65874954475131986 7.0049729696556504 99 87 65 0.26099984152339761 2 1198 3 1147
2398 -2.6066847227667242 -0.59626587765448003 13.529739351220574 190 183 177 0.096149693103196349 2 1416 3 1312
2399 -2.1848947970473551 -0.53008393634974771 13.553227226797018 50 46 45 1.6210619616545454 1 1706 3 1331
2400 -0.12444007915224632 -0.43503599964296819 12.706341778233522 113 97 81 1.3716234658310296 1 1757 2 1467 3 1305 7 1512
2401 -2.530818751988233 -0.40695233126608665 10.726913538226517 156 144 132 2.9704886623428992 1 1788 2 1472
2402 -0.10898713489050241 -0.34851760044913915 12.665178877561118 133 118 95 1.8316234684321788 1 1813 2 1507 3 1350
2404 5.0277802650658305 -0.1528865487254944 15.155072138877161 72 72 72 0.86315228005618538 1 1892 2 1583
2407 5.0409099366911896 -0.018607766814303851 12.196621007055922 19 26 36 1.6692540016369164 1 2002 2 1659 3 1352 6 1470 7 1739
2410 0.86312198335406021 0.15198791616486065 14.353196560429964 131 118 109 1.8614598688710071 1 2053 2 1779 5 1102 3 1606 6 1655 7 1745
2412 4.7232855024734981 0.23764053304873861 12.183229905779303 62 35 18 0.73851369416935375 1 2154 3 1539
2416 5.0824592674069091 0.42988915155556379 11.436862862048251 145 137 126 1.2775898374125854 1 2290 3 1656
2418 4.5826538167916748 0.47442540229282787 12.406116218960685 74 62 50 2.0830105414796041 1 2269 2 1975
2420 -4.1013018087925257 0.10282508816986659 5.9085205448450679 139 121 111 0.50893289635360783 1 2406 3 1973
2423 -2.7185255947730593 0.44568960035865274 10.073548142313932 125 116 102 1.082281933889752 1 2381 3 2032 7 2113
2424 0.57305053667960937 0.73768995255496117 13.808331404564347 171 162 153 1.4759236031866381 1 2363 2 2126 6 1971 3 1966 7 2050
2426 4.9049333580835439 0.741206777574827 11.833291600866275 150 138 124 1.1627687531263229 1 2451 3 1896 4 1747
2427 5.0295732736012431 0.73005913656708776 11.644672783562827 164 148 134 0.13792451411949275 2 2156 3 1881
2428 -3.8733450527089492 0.22183933576308534 6.4653411918812171 125 118 112 1.5374268643687554 1 2477 3 2084 7 2276
2429 0.72290879515011208 0.91513533076285103 13.44106293676171 42 32 22 2.0660181106976041 1 2471 3 2101 6 2088
2430 -3.8783640484979922 0.30899754127192219 6.2357362333173425 117 107 95 1.0640247513469614 1 2601 3 2224
2431 4.1677001121475206 0.89060731752535138 10.919133555857915 142 105 77 0.91129206347857394 1 2612 2 2329
2433 -4.0646777612407092 0.68799949468716515 9.715687667733091 48 38 26 1.4362756645106884 1 2603 2 2383
2434 -0.14212355335726426 0.99691096216921582 12.140393352803958 64 48 32 0.48481022695717718 2 2389 3 2251 6 2235
2441 -0.36463711879492955 1.2518544104228764 12.02996147028084 156 136 111 1.2048863393685381 1 2794 3 2467 7 2409
2442 -1.6853599008098958 1.0885996377360743 10.94007078963082 143 130 124 1.1154158290778895 1 2778 2 2590
2443 -0.88197389176039365 1.2589170283822539 11.567479018819306 61 48 40 0.18988737883230966 2 2647 3 2518
2445 4.7321184358265533 1.4536093425572059 11.915967019658609 72 52 35 0.35531859342130578 2 2677 3 2472
2447 4.6992225474912059 2.6284388364625313 20.596676520254466 57 62 68 1.0261924624610339 1 2878 3 2574
2448 -4.0775958562999204 0.54890145469014295 6.0062465119598807 72 73 68 0.73655061589574311 1 2938 3 2592
2449 6.5522475556530164 2.8965271537792745 21.986188021371643 144 144 142 0.53250779036525864 1 2898 3 2591
2451 0.25595350807808642 1.4579662483118814 12.049346570797523 150 135 116 1.3094950173730482 3 2584 6 2543
2454 5.0060215532759651 1.592886282825017 11.92204076732002 83 88 91 0.75559112121789695 1 2978 3 2560
2456 -3.9600052576835991 0.641947592031752 6.1026631589073679 132 120 106 0.83100409005607234 2 2784 3 2694
2460 1.2665755059016683 1.9889664282425974 13.326781414983618 165 145 130 0.24871383439459863 2 2903 6 2719
2462 -3.9000054642214539 1.3177219842857923 9.6151129539895166 27 26 24 2.2951017855450395 1 3099 2 2918 3 2866
2463 3.3709337321907293 2.9470516700605378 18.282308134532791 51 37 26 2.2159608452256694 1 3146 2 2965 7 2681
2464 4.131398673517376 3.166892380755451 19.225808905297711 53 46 30 0.31584776360527528 1 3160 3 2902
2466 4.2621391873944807 2.1040368269372176 12.334252263688326 87 84 79 1.7451273405544836 1 3232 3 2915 7 2826
2467 -3.9810306730783007 0.85938838297126241 6.0354662437589912 123 118 112 1.9982397569610331 1 3250 3 2973 7 2912
2469 -2.310872082790131 1.740935533768186 10.185381601175857 98 95 87 1.9450263165179671 1 3309 2 3127 7 2891
2471 4.5346132986847341 2.2074226335046108 11.485268015989476 117 100 84 0.37599744710088817 1 3393 3 3105
2472 -1.5161802354911404 1.8373867812577271 10.115699615336013 81 68 52 0.84204459195769799 1 3376 2 3199
2473 4.0804700225182806 2.3393577925460134 11.800362152119078 80 69 55 0.45534817076769485 1 3430 3 3180
2474 1.6687953155734656 2.6031010080907082 13.41060578264336 44 28 9 1.1610074784398159 1 3398 3 3193 5 2903
2475 4.8613595989766596 3.9558367324532298 19.819660332652909 93 84 69 0.23929017808001404 1 3400 7 2958
2476 -1.3444242708154777 2.1459573065363209 11.049669696157629 119 101 89 1.862655405641739 2 3273 3 3243
2477 -4.1517736475086178 1.8391411490933303 9.7664373155485951 74 60 47 1.5154308930835487 1 3457 6 3181
2479 1.0002137176055819 2.8837911161173344 13.334686202291254 88 74 63 0.0094304340826822236 1 3550 3 3353
2480 4.664300746923959 2.6262837344037391 11.604892938919207 80 68 59 0.26299351152235478 2 3393 3 3369
2481 -1.6924594837247027 2.2558856930743874 10.511792379566508 70 52 38 1.332172462425242 1 3585 2 3413
2482 -3.9498676842754947 1.9611453340691603 9.5271988066101869 138 121 106 1.5592402431356258 1 3575 3 3374
2483 4.5178998616874537 3.0989951471607964 12.6608164783491 43 45 31 1.3305456981144483 1 3719 2 3532
2485 4.2029655410518574 3.1559601869213836 11.605357610034698 27 19 8 0.031095489369748777 1 3908 3 3741
