# 3D point list with one line of data per point:
#   POINT3D_ID, X, Y, Z, R, G, B, ERROR, TRACK[] as (IMAGE_ID, POINT2D_IDX)
# Number of points: 424, mean track length: 2.6960167714884697
476 -0.43524464143345098 2.8796985888000148 11.32117932155797 183 166 148 0.56850396186219032 1 4151 2 4039
477 -2.507830221024236 2.4289110152796201 9.7480342725781686 74 69 60 1.1706472050053534 1 4174 6 3912
481 -2.2544301787589847 2.5064668595394455 9.7091507982692296 44 28 15 0.68249510833198213 1 4237 4 5104
482 0.0045641916230406976 3.0679129438884267 11.396772039879973 31 17 6 0.22567775160626541 6 3989 4 5077
485 -1.8815700236821402 2.5756024073913095 9.8362619750593705 144 123 104 0.74203035196092437 1 4264 4 5130
489 -1.9064174417443254 2.6587473185118919 9.5918022895733142 107 99 88 1.9710140434575334 1 4394 5 4394
490 -2.0478365763715454 2.6539591859192515 9.5377709642373674 17 15 11 1.7296923342460069 1 4409 6 4139
493 -2.2033440739804737 2.7586292495925795 9.4385284207132152 159 145 132 1.2101269209385781 1 4531 6 4296 5 4621
500 -3.6484638616170009 -4.7553569348976845 18.39828337898015 115 115 117 0.17156936095052056 1 484 5 33
501 -3.0243713919356701 -4.7970664957958498 18.794227188669847 139 135 135 1.1498141515025968 1 501 5 34
502 -4.7583834762879942 -4.7793513804423844 18.33127391734212 109 113 116 1.5147624900087631 1 465 5 48 6 407 7 345
503 -4.5272543311696927 -4.7918021530540633 18.456630683371483 99 99 101 2.2256339969250849 1 472 5 49 6 408 3 396 7 353
504 -3.1960221315618993 -4.7251228913563503 18.797527449978006 89 89 89 0.59754289691489426 1 515 6 419 7 386
506 -3.844486396055586 -4.5076625330627591 18.456389062567279 107 105 106 1.8341714862325227 5 91 6 478 1 565 3 426
507 -2.7417146034461615 -4.5705764741078809 19.340660277619534 110 106 105 0.77283867709715404 5 94 6 500 2 473
508 -4.4208315549608113 -4.4834868281534801 18.437692221833757 108 106 107 1.6305632094627063 1 552 5 103 6 487
509 -4.2840298286793423 -4.4667590411965579 18.390466063275891 114 113 113 1.6655736291655887 1 564 6 488 2 434 7 426
511 -2.4937267957902756 -4.429602299013526 19.333187537976531 95 93 96 1.0287701385538421 1 664 5 113 3 472
512 -2.3109158059379133 -4.5265645827807424 19.783302684067859 134 132 135 0.25936277571451843 1 665 5 114
515 -4.9518444523510201 -4.4034053306148824 18.2591546671887 83 86 93 1.4623658698254367 1 575 5 122 6 508 3 453 7 433
516 -4.8193140201893154 -4.3890561666939387 18.32917166938196 103 104 108 1.3221202378198593 1 585 5 123 6 516 3 458
517 -2.9838182626816647 -4.323045948357759 18.935375505171791 99 95 94 1.4867076299854807 1 675 5 125 6 547 7 473
518 -3.8251261563329573 -4.2234174304304988 18.239943169141394 158 163 166 2.0483661742622545 1 658 6 545 2 502
519 -4.0322769729532224 -4.2679035424439444 18.457683729649922 108 112 113 1.344348836062301 1 657 5 132 6 544 3 489 7 467
520 -4.2132711637983284 -4.2383852703947724 18.362032455798399 143 149 149 0.50537810993696208 1 656 5 139 6 552 3 498
521 -4.617065908757767 -4.3004431197961273 18.479426758965747 138 142 141 0.39344042305330296 1 635 5 143
522 -4.482314598035039 -4.3299129882734615 18.657276302538357 113 117 118 0.51846247645819854 5 144 6 543
523 -2.9793977840277299 -4.168325853529792 18.823168345507632 151 151 149 0.8576209613496899 1 705 5 149
524 -2.6978080098916424 -4.2367528883202059 19.409012556963194 116 114 115 0.34844077859690326 5 161 6 577
525 -4.7499216544566965 -4.1825985094994396 18.362771857023887 124 124 122 1.7368320504634145 1 673 5 172 3 518 7 481
527 -4.4015997618603571 -4.0464968805798476 18.33617524194149 134 138 141 1.6744531146151325 1 712 5 192 6 589 3 540 7 514
528 -4.2164883615169124 -4.0381772211591658 18.360848129910401 103 108 111 1.1516880804494432 1 713 5 193 6 590 3 541 7 521
529 -4.0561152143854828 -4.0410261637577269 18.423859241513266 137 141 144 1.81531111079934 1 718 5 194 6 591 2 584 3 542 7 522
530 -4.7403267958435524 -4.0427151872525258 18.276766139810615 108 112 113 0.41995196410881347 1 703 6 587 3 551 7 512
531 -4.5780101491447356 -4.0609852487524769 18.385482878026785 90 95 99 0.77904634129009442 1 704 5 205 7 513
532 -2.5009679878648767 -3.9789031424695103 19.246526816761687 79 78 82 1.7707985024270829 1 793 5 213 6 617
533 -2.6300952407998435 -3.9199855628623843 19.006381274250725 145 153 156 1.4819709286812364 1 792 5 219
537 -2.0866152807219676 -2.520570845097637 13.864288621190022 109 113 114 1.3374511047335944 5 258 2 816
538 -4.4441734169151195 -3.8596260034931711 18.424196375701975 87 92 94 1.4467541709172118 1 777 5 269 6 635 3 593
539 -4.2985367537973946 -3.8760984004026713 18.527622340006314 124 132 135 1.4028453702163641 5 270 6 636 2 639
541 -4.7322987608036859 -3.8243209345727349 18.18195272837222 115 115 113 2.1831023865866106 1 765 5 278 6 633 3 591 7 573
542 -4.5743907594143547 -3.8299090292182227 18.267808280537981 123 127 126 1.5273531180136186 1 776 5 279 6 634 3 592
543 -2.7797702064415164 -3.7775359116437079 19.087468516448087 123 131 134 1.8122063026319626 1 854 5 284 6 669
544 -5.1487716974265698 -3.8499212534792204 18.253123094280944 141 141 141 0.92305918637443674 1 757 5 290
546 -2.6635014486592135 -3.7873945997108889 19.32630057449774 111 111 110 1.8967830856620682 1 855 5 297
548 -4.1932244948311554 -3.5721872043041207 18.099326780784423 156 164 167 1.7160372950879985 1 850 6 712 3 695
550 -2.3932050517926919 -2.3948280179243522 13.833688277196776 76 80 83 2.0234092453085473 1 1077 5 318 2 876
551 -4.4340309506111062 -3.6147649420984105 18.308274606317436 103 107 108 2.1606618266310926 1 849 5 325 6 711 7 649
555 -4.7523779624287465 -3.6101210264757957 18.164275081782911 122 121 117 0.9810596693757887 1 840 5 330 6 708 3 691 7 640
556 -4.6348010368494155 -3.6423784263586754 18.358552884533726 101 105 106 0.97642099470173971 1 841 5 331 3 692
559 -2.9036374755443428 -3.6782049176957012 19.489100311578962 94 99 102 1.8483973930705659 1 899 5 336
561 -4.423306506342068 -3.3898365980657439 18.173846384905229 131 133 131 1.4469831011459455 1 923 5 371 6 762 3 748 7 711
562 -3.7818574163623184 -3.0827425196132312 17.054295919878435 161 162 157 1.0548727340150812 1 970 5 373
563 -4.7519514187735714 -3.3963733444213675 18.105866657199247 103 102 98 0.97473519645039475 1 915 5 378 6 760 3 745
564 -4.6184287519702947 -3.4042275939369371 18.234275991091415 114 118 117 1.466897738538476 1 922 5 379 6 761
565 -2.1326360842176295 -2.1843739650235054 13.80009376210359 153 143 133 2.1489265963681974 1 1159 5 380 6 936 2 963 3 888 7 1004
566 0.31996623195973017 -1.741856943778181 13.090724743694294 96 89 85 0.90981689264044763 1 1348 5 381 4 167
569 1.0577701585666526 -1.8623211150424626 14.159022351357921 137 138 141 1.9945660007363379 1 1336 5 388 6 1021 4 269 2 1117 3 942
571 5.3184469461715329 -0.92683416582389477 12.306837610038787 113 109 106 1.1832088466613069 1 1772 4 667 2 1448
572 -2.3883270375087635 -2.0929397925617268 13.723697924142165 98 93 87 2.262547424115779 1 1194 5 415 6 978 2 1016 3 919 7 1033
573 -1.8852428909477363 -2.0708289494565149 13.859039296267152 93 89 83 1.8759053589992949 1 1218 5 416 6 986 3 924 7 1034
575 -4.5151365038159348 -3.0969532901015557 17.700606913548004 128 129 126 0.69104279953747871 1 991 5 435 7 780
577 0.32094298348426642 -1.614776451765416 13.030170746622177 73 72 70 1.0668663354397754 1 1418 5 439 2 1174
578 5.4488721038308467 -0.78364468314284275 12.078350425678515 13 17 27 0.90188306942479091 5 442 4 760 2 1511
580 5.3064304128065158 -0.79645621317653981 12.15037746936842 49 49 49 1.4658430126382347 5 451 4 759 2 1510 6 1330 1 1846 3 1223
582 -0.67181029983500196 -1.5274506013338085 12.207144412937517 91 86 82 0.82750707818730773 1 1429 5 454
583 1.0825633286484118 -1.6778075703205242 14.080162586772644 111 116 119 2.3129234091800162 1 1430 5 457 6 1096 4 356 2 1195 3 1019
585 1.9470267851071867 -1.7200295742790084 14.838249154449958 169 168 173 1.9957704597617301 1 1443 5 466 4 460 2 1201
589 -0.31440368539623653 -1.4327492687486689 12.234455730294172 108 101 97 1.4111098166142471 1 1488 2 1207 3 1072
590 1.658018805724202 -1.6551848826771689 14.723182511347558 89 93 97 1.2947517518980858 1 1467 5 489 7 1215
594 1.8903226665628559 -1.6392282991450946 15.064788731890117 130 135 139 0.17393264925642035 6 1132 4 539
595 5.1468572873830416 -0.72421321932793137 12.200145352028235 89 72 62 1.6012317973930481 1 1893 5 504 4 841 2 1557 3 1264 7 1639
597 4.6575100509208927 -0.86277017859498395 12.585794239120881 61 69 76 1.2304909200758454 1 1818 4 772 2 1495 3 1230
599 -1.9020124838391097 -1.7975129308193922 13.7284440348775 72 69 64 2.0705603941222028 1 1332 5 517 6 1093 2 1126 7 1147
600 1.9969232398917574 -1.5498602485305997 14.840470954437817 159 159 157 1.620682016722377 1 1523 5 519 4 569 2 1281
601 5.2259290196686932 -0.69606488248692844 12.153292162990834 106 88 78 1.2054734417977395 1 1910 4 862
605 -4.2551883022144512 -2.6883295568429926 17.736823847991751 156 144 132 2.2966966488368405 1 1140 5 542 6 969 2 980 3 948 7 922
607 0.75997970327582531 -1.4059636787506846 13.670844647232069 99 99 97 1.2929338280196396 1 1567 5 554 2 1302 3 1131 7 1313
608 4.9305366774120376 -0.67860605092205795 12.336044400880608 117 98 81 2.2203071489556279 1 1920 5 558 4 907 2 1584 3 1294 7 1651
610 -1.8911168831641496 -1.6171015964496189 13.42177426553528 111 104 94 1.7022869953990234 1 1426 5 579 7 1213
611 5.4569208551234603 -0.50915618077680769 12.029484213140282 20 27 35 2.0795102346850487 5 589 4 1015
612 2.227922662581411 -1.3643876546434748 15.145743735421583 141 145 148 1.5377615285358683 1 1624 6 1237 4 758 2 1372 3 1176 7 1340
613 4.81776412898272 -0.60822726161763985 12.408887334860804 141 128 115 1.4813979837662192 5 606 4 979
615 1.2782395001189 -1.2619593041457697 14.129446667039211 94 93 89 2.0110054102002008 1 1638 5 619 2 1389 7 1382
616 0.78893706207286385 -1.2526167144081599 13.81229625305911 124 112 100 1.034777806041572 1 1637 5 622
617 1.8044426336375532 -1.3003631113516823 14.811195297014791 112 112 111 1.8296279424945119 1 1639 5 624 4 736 2 1390 3 1200 7 1375
618 -1.8697742515887743 -1.4805455266732295 13.586714175052091 88 85 80 0.23080543893737326 5 632 2 1270
619 0.78637113392442204 -1.1762583224945673 13.851263788668206 173 161 149 1.2269546604388741 5 669 6 1302 4 621
620 2.7361644857692684 -1.2240849916250816 15.615827064119282 163 162 167 1.7498187651213328 1 1690 5 672 4 945 2 1441 3 1239
621 5.1716858972459931 -0.40684549832391054 12.108405518574063 49 33 25 1.1479948106921698 5 673 4 1125
622 5.4441750074787896 -0.35335608444543104 11.979430723627308 105 95 85 2.422911889773808 1 2110 5 680 4 1160 2 1769 3 1469 6 1564
623 0.98005111084479191 -1.1586906628849583 13.868142090397781 146 136 124 1.4587981910657526 1 1688 2 1421 7 1426
630 2.3522036382252205 -1.041221966171322 15.387150837211376 136 129 123 2.2330839179013253 5 770 6 1376
631 5.201559945515581 -0.28085053526447307 12.154455874977328 87 71 58 0.075201746149798729 1 2154 5 774
633 4.7899292748068998 -0.32098637059737944 12.304016068538319 110 95 84 2.0867522397328289 1 2130 5 795 4 1226 2 1803 3 1525 7 1849
634 1.8908571436719483 -0.95312281340005689 14.656800774659391 60 56 53 1.0361929397486012 5 797 4 976
637 2.0317218278052032 -0.8893575098649158 14.684404814462733 63 56 50 2.0269081362238905 5 817 6 1427 4 1035
639 1.7639259590255651 -0.9110076609048221 14.707822475465292 105 95 86 1.5024042979952053 1 1831 5 824 6 1426 4 1013 2 1547 3 1369 7 1531
644 4.7819417768591981 -0.19133542112795743 12.263041870937494 130 119 107 1.8659763426897369 1 2199 5 884 4 1348 2 1883 3 1597 7 1900
648 1.5460666203621589 -0.6937415330066532 14.427645477746321 92 83 77 2.6908983776045829 1 1949 6 1531 4 1146 2 1642
650 5.4100262234255982 -0.012959874758600637 11.996238517682329 47 35 26 1.7726617011642505 5 953 4 1519
652 -0.24949237518911935 -0.62835743435853431 12.319537264276249 161 150 136 1.0277300476266595 1 1961 5 958
653 4.910607248106631 -0.053069110594218594 12.146831697846535 120 113 99 1.5713323975113118 5 965 4 1490
654 5.3197133595888006 0.0025373218425190081 11.979384436076637 66 55 49 2.3084999292600505 1 2305 6 1808 2 1997 7 2014
655 3.0263831269129344 -0.60018953336565861 15.487888996390801 88 91 100 1.8119737486641665 1 1986 5 982 4 1381 3 1512 7 1663
656 2.7227636483616302 -0.62810210789992782 15.566553278583422 90 90 91 1.530247788209117 1 1981 5 997 6 1555 4 1358 2 1702 7 1650
657 1.2083845322460229 -0.65496283071649719 14.402405253967766 137 128 119 1.8362349640949032 1 1962 6 1554 2 1680 3 1510
659 -0.71921703897725542 -0.46234799518662889 11.701268098688976 36 26 16 1.4849401335277648 1 2052 5 1062 2 1755 7 1807
660 1.6411294261094846 -0.47843002215936231 14.468798077576256 70 65 59 2.2899562060186391 1 2054 5 1067 4 1320 2 1768 7 1734
662 4.7828358686382568 0.06181933902434171 12.210724437462945 52 43 34 2.0173124821756638 1 2341 5 1074 4 1613 2 2035 3 1776 7 2042
663 -1.9246060808514569 -0.57242488214512099 12.101212715423474 169 161 150 1.0778756386891364 1 2000 5 1090
667 2.7109723083182278 -0.37862513059802855 15.482683248192316 131 131 129 0.20927135615264167 1 2098 5 1119
668 0.27186682993069511 -0.3545901023342774 12.665418295358709 125 110 92 2.067780869260067 1 2128 5 1126 2 1827
669 -0.82942174926136381 -0.3386342614829882 11.571204414331108 120 101 84 1.4997504677764124 1 2140 5 1159 4 876 7 1871
672 4.7799682934123693 0.18194828882526601 12.187692698487693 151 141 129 1.394700928121714 1 2401 5 1186 2 2115 3 1866
674 1.5740086914310429 -0.23964489704762876 14.730773743741601 88 76 62 0.43037082874183585 1 2170 2 1897
677 -0.70798324286456316 -0.21100267584694321 11.627856451315839 40 23 8 0.50936572637169397 5 1264 4 1031
678 1.7261077669207665 -0.17305830966234953 14.438680176414243 85 78 68 2.4534394504667167 1 2198 5 1266 7 1879 3 1760
679 -0.90690296771472045 -0.21798674446288435 11.581812928436241 148 136 122 0.92243057247066851 1 2210 5 1269
680 -0.34055621328572649 -0.19072739431014107 11.964842799917717 91 74 56 0.41242249065616232 5 1272 4 1143
681 2.7229091112459267 -0.1413628542429744 15.572120366532154 131 126 122 1.5530150972511971 5 1282 6 1794
682 1.1861960506501095 -0.15268228576699566 14.099125699176648 181 172 157 1.7959065404992109 1 2224 5 1302 2 1952 3 1772 7 1888 6 1811
684 4.7608928056093367 0.33729249395093119 12.129463983404708 122 110 96 1.9692342473277229 1 2491 5 1310 4 1873 2 2226 3 1969 7 2165
687 1.3734662737152583 -0.11208767193302976 14.455739800420757 96 86 74 1.242577762620561 1 2238 5 1346 6 1831 2 1974 3 1793 7 1898
689 5.0817833608069103 0.41462824876411286 11.783262876740178 94 87 81 1.1853316133566445 1 2539 5 1356
690 -0.3496976355876168 -0.087735606786170761 11.915443974369074 64 52 40 0.26948030539175105 5 1358 4 1247
693 1.6020979011067216 0.013178991897859205 14.588534195847684 139 123 100 0.0091289076661822555 1 2284 5 1415
695 -2.8759471229844347 -0.14977883277549792 10.386714318033906 125 113 99 0.40082935320339208 1 2273 5 1432
696 2.6928562042885007 0.12661898145836203 15.277611807827268 144 140 137 0.31106190694143071 1 2326 5 1444
697 4.7600635139137868 0.47133375667354122 12.09691617267417 124 111 95 2.1486331882693022 1 2566 5 1447 4 1987 3 2081
698 5.1342418428363352 0.51999348651237365 11.785328810486842 150 142 133 0.72244107609818542 5 1448 4 2014
704 -1.2078740389348714 0.038042838877441421 11.052798749996661 107 98 85 0.47163782320126346 1 2372 2 2111
706 -2.2207527697140579 0.0066416767524536124 10.458197087577638 156 155 151 0.17478172490899646 1 2370 4 938
707 1.0109963579393368 0.15780338286764972 14.202223408975836 167 158 141 0.85693517784507534 5 1545 6 1971
709 5.1828202346626995 0.63236165178731163 11.777761883002833 154 152 148 0.96749613252737476 5 1560 4 2113
710 -3.4769045580509359 -0.066127760199249458 10.220642133256892 59 52 46 1.5917904686067548 1 2336 5 1565
712 4.7811794180780556 0.60392763743702926 12.070586692621873 114 95 78 1.6560823574269334 1 2666 5 1588 4 2095 3 2184 7 2318
714 1.2949088402682276 0.24078759999792454 14.301535605629242 165 149 131 2.0497162230027426 1 2398 5 1603 6 1996 3 2023 7 2079
716 -1.2876939977362785 0.16264918694981265 10.695102536986283 72 69 62 0.74147597933803877 1 2469 5 1625
722 1.5271121370810339 0.44079986292229767 13.474840863004165 90 78 64 1.0644976679390041 5 1719 4 2006
723 4.744009444957106 0.73588375389491345 12.007741751531867 121 109 93 2.66879552934819 1 2763 5 1721 4 2226 3 2292 2 2521
724 4.8739228037687186 0.76560568666467277 11.809803188357028 134 113 94 1.708384684026677 1 2784 4 2248 3 2319
725 -0.93058910470243905 0.27582629919674778 11.390128278752186 44 35 26 1.0373550011413326 1 2510 5 1734
726 5.1294335589511046 0.78134258436240001 11.809858142676326 133 114 97 1.3280548748900971 5 1741 4 2257
727 4.7305834291423814 0.75608081545050121 12.190278744198318 141 133 120 0.148671199034831 5 1746 4 2246
728 1.6849617479421051 0.4939249595709152 13.619170370813482 82 69 52 1.3768805019255632 1 2546 5 1752
735 -1.3739336047338695 0.34227139607384233 10.801370340766844 68 61 53 0.2913440423906401 1 2581 4 1549
737 1.8653054361683914 0.55470722022719454 13.984514371366615 49 39 29 0.89659931118889535 5 1811 4 2108
739 4.5936231112941694 0.7551609707632565 19.928985114547633 89 101 110 0.71889480746578704 5 1823 4 2394
740 -1.1768352756438702 0.35419101408025877 10.857045776685865 119 111 98 0.65620703109465772 5 1828 4 1581
741 0.40689933741814899 0.49337666678831132 12.344803024606858 176 164 142 1.4525149824181516 1 2616 4 1956 3 2252 7 2262
742 4.8669608910848776 0.8692056063069733 20.151206053712322 111 112 114 0.69198729141715454 1 2525 5 1856
744 -0.9785358567806719 0.44016354439124844 10.964106825709667 34 25 16 0.31269628976956559 1 2649 4 1716
747 -1.3811095737356229 0.41768266922751307 10.729614790362907 119 111 101 0.14035515847887134 1 2648 5 1895
749 -2.9890295817985191 0.30171845362706162 10.261350713146214 78 75 57 0.29435075194247445 1 2604 5 1906
750 4.9444125687421945 0.95282622493111813 11.881653745047569 46 28 19 1.2538490552255459 1 2901 5 1921 4 2435
756 -3.7983349196866882 0.28924208924094563 10.150535133648692 45 35 26 1.0744279985201457 1 2603 5 1965
758 -3.3877409536201903 0.31908900424128461 10.167284274716366 72 61 52 1.8147345394819356 5 1967 2 2398
759 5.0199220576929759 1.1119768007861757 20.182083731013584 185 186 181 0.60307505755680779 1 2624 5 1977
760 1.7179638849594283 0.8097996209002094 13.517903217008033 120 103 85 2.4510145170722466 1 2750 6 2366 5 1998
761 4.7549870927795368 1.0150867759560225 11.974727747514439 76 67 50 1.5937201979061144 1 2931 5 2000 4 2499 7 2535
762 -2.635734925931625 0.39977109337186656 10.175902846676284 133 119 106 0.93574790914905037 1 2686 4 1448 3 2377
763 4.5967532203912933 1.0141123028986589 12.133405286148085 72 62 52 1.4305952367684791 1 2919 5 2005
764 5.1144930010042371 1.0501303847248875 11.718082733928458 141 127 111 2.2401464361473633 1 2965 5 2006 4 2539 3 2541
766 -2.3737638520945161 0.45822198230135519 10.235999986901128 132 118 105 0.036834588614746602 1 2721 4 1572
771 -1.8704106552889472 0.49418725616176851 10.222217120610258 64 57 51 0.01851846403391098 1 2747 4 1647
775 4.9818917149866033 1.1087085733196358 11.870526863003137 114 93 72 0.062151919377028041 5 2074 4 2605
778 4.758719000046896 1.2916166657802939 19.173219935571652 95 93 96 1.4172653722257915 5 2088 4 2721
779 4.8049407374083009 1.102196283418182 11.838396079178471 126 101 81 1.1362269839105619 5 2090 4 2593
781 1.5337067418891379 0.91464731260785803 13.617530040723752 142 129 112 0.52660661075447213 4 2392 2 2611
784 -2.1280946552411431 0.56727134351050457 10.221923734165827 169 162 151 1.2531030934169336 5 2113 6 2470
788 1.9380077274081251 1.027423884881401 13.925900101888375 171 158 141 1.8069524728778095 1 2848 6 2462 4 2507 2 2661 3 2519
789 -3.7665478691966738 0.48088943404008289 10.126177858152467 46 47 42 1.3527795336657151 1 2768 5 2143
790 2.2253077839973163 1.0439788556495724 14.027037730139101 46 33 17 1.6498673414122331 1 2850 5 2148 6 2463 2 2672 3 2513 7 2446
791 4.6680980857568724 1.152797931638543 11.979958862584816 130 126 114 0.19995621521603441 1 3012 4 2654
792 4.5820121591039982 1.1660722219951234 12.057935556447944 152 140 125 1.895691205156365 1 3011 5 2155 4 2668 2 2798
793 -2.824982847384411 0.56150426754042893 10.095481977474366 147 129 115 0.90116103916403256 1 2813 4 1684
795 -0.36965100692027186 0.80670805652537214 11.675428513411571 94 81 72 1.0120855305393428 5 2163 4 2215
797 5.2192276927457018 1.2117491684498529 11.428832642509709 123 132 137 0.91974101110307849 5 2172 4 2761
799 -0.80725736296510198 0.77328788090561695 11.338444023698489 55 43 30 2.4689971763921474 1 2873 5 2176 4 2135 2 2685
803 4.929541722010069 1.227045726367525 11.618963212164362 70 52 44 1.7916523948014511 1 3083 4 2769 2 2863 3 2692
805 -3.7815217985212271 0.56120696673564185 10.119383761892578 83 82 78 0.7423766952326678 1 2820 5 2214
808 4.6414700589467204 1.2418348938858113 11.670251820532561 71 64 56 1.4565984230309159 4 2778 2 2871 1 3081 7 2674
810 4.659360458192479 1.2890404701193312 11.969424944909443 170 166 161 1.4655062058106152 1 3096 5 2258 2 2876
812 4.226165014807802 1.6260850648596272 19.460853691369596 96 73 59 1.7814484339275098 1 2876 5 2267 4 2903 2 2705 3 2571 7 2433
813 4.5215533925574602 1.6500225107006192 19.555798580395852 106 88 67 1.554174567214557 1 2877 5 2268 4 2915 2 2716 3 2572
814 -3.8138653960694584 0.61859769395073649 10.15534525153026 62 60 56 0.83276370835369817 5 2274 2 2695
816 2.1816945027638006 1.2431038913646526 13.842246317263047 126 114 100 2.2265650612925585 5 2290 6 2590
818 -0.39598232099221975 0.97988316520453256 11.839723638079064 165 146 129 0.030620975406191561 5 2305 4 2407
820 1.6389571384476203 1.2557266294849792 13.480690384542763 137 124 107 2.0076588903111374 1 2997 5 2330 6 2628 4 2753 2 2815 3 2691 7 2591
821 -3.9879719034840164 0.67745394521451563 9.9832318369302211 113 97 84 1.6218569726809009 1 2923 5 2344
822 4.7751570034412074 1.4182807723820794 12.186214702821298 150 147 142 0.44173888426481689 1 3154 5 2352
824 -3.7771111471669441 0.71755386961073242 10.07444209728801 105 96 87 1.6413229569374037 1 2944 5 2362 7 2564
826 1.9997225160425929 1.3663150804789155 13.86303900158271 84 70 57 1.2631571543735998 1 3029 5 2378 4 2841 6 2649 3 2731 7 2621
827 5.2524030764731577 1.4888110626857938 11.731434644974559 27 24 19 0.14197731540232844 1 3203 5 2402
831 5.093266678045822 1.4957747145083742 11.812956783500635 24 20 14 0.83165060858747319 1 3202 5 2416 2 3001
832 4.2415217135985905 1.9995137664317091 19.548705599688752 100 88 76 2.4814441050143374 1 3009 5 2423 3 2743 2 2860 7 2555
835 -1.6117129536252039 0.99600916746910362 10.529441869373704 16 15 11 0.8804676552990981 5 2455 4 2367 7 2669
837 2.0717252492639662 1.4927215981643598 13.801426615932781 74 58 42 2.3030900650736048 1 3105 5 2463 4 2956 3 2818 7 2672
842 0.047223171085529619 1.2665295069795317 11.904129542153564 125 107 85 1.3736164244713842 1 3127 5 2502 4 2785
843 1.7609547533546026 1.561195459506507 13.574950657342628 107 88 71 0.25253523740451445 5 2548 4 3043
845 5.1173389624800096 1.5799764947284463 11.397602844543249 46 34 20 1.7468144701902348 1 3294 4 3215 2 3063 3 2968
847 -3.8095921665197294 0.92841561450591081 10.071092854478165 41 37 28 1.1921317900786044 5 2562 2 2917
848 -3.4699407146314538 0.93779929611229496 10.103196255306077 132 100 74 0.44269826662390527 1 3101 7 2703
855 -0.52436240249810739 1.3825263877982437 11.596334818292533 46 41 37 1.0178609570375288 1 3210 5 2661 4 2924 7 2811
856 -0.33195805381095045 1.4060212730761468 11.610533300348523 146 126 102 0.12311631005114369 1 3223 5 2674
859 -2.3620942870143722 1.1390420382580833 9.9985534181785063 146 137 128 0.16487814133734971 1 3222 5 2698
860 4.523629259624653 2.4971192336206451 19.011348380657097 137 115 101 1.8043417119371385 1 3211 4 3433 7 2769
865 4.1861442531089388 2.5037207295139341 18.847007369734104 37 29 18 1.6057433960079306 1 3228 5 2729 4 3441 2 3055 3 2992 7 2795
871 -3.9959340842340438 1.1234448550323755 9.8393294907112576 63 56 50 0.67041656792455218 1 3252 5 2788
872 0.27371624601359901 1.7278612198583716 12.453273622504083 96 78 56 1.755713292766254 5 2829 4 3300
873 0.47272962433017485 1.688747727756329 12.095258000485927 156 136 103 0.80018282537290419 1 3348 5 2830
875 1.8566416712276368 2.0003735667197895 13.766514057268235 107 87 63 2.0323780983169075 1 3363 5 2857 3 3141
876 1.7245388746300814 2.0579464701474124 14.187121667200804 119 101 87 1.6748467724377245 5 2863 6 3041
878 1.5642751505214034 1.9660850620993771 13.434395109056156 87 70 60 1.3975371348658452 1 3378 5 2874 6 3050 4 3431 7 2940
879 -3.3514837769042689 1.2545229660679798 9.8815559667607733 42 33 24 0.40625327403132405 1 3343 5 2878
881 2.1187488085462816 2.0536117899207618 13.551717607781981 56 44 32 1.4690821361080346 1 3398 5 2903 3 3193
882 2.2716319714037203 2.0495332877102226 13.416558225488432 57 43 24 0.93455678013160359 5 2904 4 3509
883 1.9495402339657464 2.0745461448541924 13.700179220095245 68 47 25 1.7851655218822455 1 3397 5 2909 4 3508 2 3233 7 2976
887 4.5582018068694872 1.9970914185418485 11.848655877919859 71 55 32 2.0062580498826996 1 3497 5 2936 4 3618 2 3297 3 3253 7 3067
889 -4.0349818851627877 1.3119994440831086 9.8342219264562356 27 20 12 0.011608637997443758 5 2965 2 3244
894 1.4574571551248359 2.1495018939039898 13.471488290148171 95 77 65 0.82738472016706655 1 3462 5 2996 6 3146 7 3026
899 4.5561814784986199 2.1256805769900979 11.8281751996102 89 72 50 2.6148611470356951 5 3051 4 3738
900 2.1004850500035501 2.3018616035390695 13.560245410064095 124 106 82 0.5512285824379769 1 3521 6 3206
902 1.7464036061581703 2.3392687441580793 13.628497564120066 51 35 23 2.63797806104954 1 3538 5 3089 4 3766 2 3354 3 3341
905 1.4442059883934428 2.3213323066597145 13.465792498884168 63 47 34 2.2099623352098936 1 3550 5 3112 4 3764 3 3353
906 1.6220628054219242 2.3644526364719685 13.715445772041488 66 53 37 0.46966643319226981 5 3114 4 3779
907 -1.4986861739791077 1.7090662999187409 10.462101029858973 73 55 41 0.39958946593780637 5 3119 2 3377
908 -3.8463685691889213 1.4787129342621159 9.7446916270950563 125 110 89 1.4394631217440488 1 3520 5 3125 7 3090
911 4.7005206589327138 2.2673774572114325 11.899622988794427 86 76 66 1.8921938574768211 5 3161 4 3881
919 1.6085075545120098 2.5701040026271258 13.94566611816977 71 56 43 0.69842337771766716 5 3238 4 3921
921 1.9624127620508136 2.5354772311385192 13.537104247281066 94 74 56 0.48123178181836379 5 3247 4 3946
922 2.1014231149787714 2.5328094313949268 13.504839895223675 96 87 72 1.2772592959707907 1 3631 5 3249 6 3343 4 3947 3 3440
923 2.256049865842368 2.5526591722555696 13.52981719921118 130 114 96 1.6388608796008268 5 3250 4 3964 6 3348
927 4.5771145283683303 2.3833657305374247 11.81706532812801 110 93 74 1.113082292196429 5 3284 4 4038
930 -2.3514347618959062 1.7468415814842075 9.8036335105089503 126 104 80 1.3335049179323741 1 3663 4 3696
933 1.7234251717791034 2.6564118174853704 13.5920499325835 30 20 10 0.93866251868185135 1 3691 5 3346
934 1.8161734610731997 2.6459649076132949 13.494184131805097 53 41 28 1.7621502002357257 1 3692 5 3347 3 3528
935 -0.051339241381194334 2.2501554769485348 11.711182890660822 184 175 158 1.5384914520059132 1 3705 5 3357 4 3976
939 1.550777190091434 2.7351049566876928 13.564136421955617 92 76 63 1.2002333580005569 1 3742 5 3414 2 3573
940 1.6331430880991418 2.7340025448529617 13.585578557590242 79 66 50 1.5619379255907997 5 3415 6 3457 4 4132
941 4.7043071786949708 2.5447792605571466 11.960675696895757 153 149 138 2.2772491598769213 5 3419 4 4187
942 2.2400433900488754 2.8143895724070394 13.763532980336514 184 156 134 0.5960262340622966 1 3754 5 3425
944 -0.39421939487868363 2.2631680831568688 11.461206520755789 30 32 19 2.0739510953490914 1 3740 5 3431
945 1.9833264828089903 2.7519195110260886 13.447568622737146 121 103 83 1.0894577347109722 1 3753 5 3434
946 -2.4716570639861675 1.8747562453125717 9.8875487585052593 99 80 63 0.53581484331757157 5 3438 6 3481
947 -1.265393007583455 2.0553730034827735 10.454983575533284 75 56 41 0.11763457935399341 5 3448 6 3488
948 -2.5082544850799198 1.906881600642746 9.8778324648979208 91 75 62 1.4084388845145495 1 3767 4 3968 2 3612 3 3590
951 -3.7299255111592018 1.8445958283324857 9.7682185828473465 60 50 38 0.72566348132008052 1 3766 5 3491 7 3295
953 -0.2719623278525638 2.3661725708269326 11.545448602057247 91 77 64 2.2849236609012298 1 3787 5 3500 2 3623 7 3317
954 4.1657420827357727 3.9071885201440799 18.190281195847955 62 53 46 1.5877970972290354 5 3505 4 4342 2 3642 3 3642
957 1.4886581217667414 2.8414407978215217 13.452569171546759 51 39 27 2.0154192632306884 1 3801 6 3539 3 3638 5 3516
958 3.9567644913804254 3.9183597044959817 18.126878479900125 40 31 22 0.90645610134518573 1 3813 5 3529
959 1.6636928598743408 2.9542557996480814 13.786351056643472 110 96 80 0.72573498926860669 5 3548 4 4317
960 2.395003536358002 3.0950523262153156 14.074460352116223 89 69 44 0.75392695898300599 1 3838 5 3588
962 -4.0100175018559243 1.9306168569273223 9.6462110020807597 48 40 29 1.1312503873495945 1 3855 5 3614
964 0.15912343167432483 2.5834504562769629 11.692555713303726 109 97 83 0.93132190992702191 1 3898 5 3639 4 4387
965 1.9206004111956585 3.1346496968510644 13.920871107825798 42 33 23 0.10457183853784244 5 3645 4 4439
966 1.9903704095962425 3.1386061757098171 13.915323853602271 21 5 0 0.97186943009917492 5 3646 6 3635
967 2.1663656712359902 3.0566393232427922 13.518943281950481 75 52 26 0.43154582297445443 5 3647 4 4441
968 4.0001487680870342 4.1878706425732464 18.363011187190846 57 47 37 1.3328595854874326 1 3892 5 3649 4 4503 3 3759
969 -0.29172273726239295 2.523660907011307 11.464354848939621 182 177 158 1.1362191919804738 1 3896 5 3659 3 3732 7 3419
970 1.4509097425774238 2.9968178114028046 13.317142862579541 110 93 78 1.8681228751118641 1 3900 5 3664 4 4437 6 3634 2 3745 3 3753
972 -3.7373886905413984 2.0016300497282775 9.7262053217122215 127 114 97 0.63875239188600075 1 3878 5 3670
975 -2.5173613013798093 2.1178310955941355 9.7866999109029802 105 88 72 1.3954497028831681 1 3929 2 3779 3 3774
976 2.24188452251274 3.2453519949534 13.838362007205783 90 72 48 0.79238444279546161 5 3736 4 4546
977 -2.7239034896823076 2.1582342546218762 9.8534830981111465 124 107 87 1.779238350207758 1 3960 5 3756 2 3804
980 2.3764430681376996 3.2848839513561017 13.678151658642134 145 124 95 1.4645105596761798 5 3792 6 3723
984 1.9506537121651635 3.2609032231691932 13.253462639157133 62 45 29 0.31625747709137153 5 3866 4 4680
985 2.0441922426123895 3.3085197786830447 13.335397339784212 156 129 100 2.0928776156285216 1 4046 5 3873 4 4717
988 1.5398233127385885 3.289524701347176 13.303455364637108 93 76 60 1.5433309643461808 1 4043 5 3889 4 4714 3 3926
989 1.7285099630823488 3.3125319385993599 13.375949224882595 74 56 36 1.7636547717806152 1 4044 5 3890 4 4716 3 3927
993 0.35609139976666254 2.8743574973678023 11.763599025535246 164 143 114 2.080095182363642 1 4041 5 3898 4 4694
995 -1.343401769948914 2.506902769345968 10.375686933908309 100 85 69 1.090042485236727 1 4066 5 3928
1000 1.7518682058783295 3.4793471690558921 13.357359503440481 142 127 104 1.773750048189225 1 4154 5 4040 4 4875
1013 0.40670115623061653 3.2130468685881786 11.738443719659239 101 83 71 1.5579386475280628 1 4290 5 4233
1014 -0.86485352739655408 2.7779190353033161 10.298457848517186 12 12 10 1.697892321661683 1 4287 5 4240
1015 -3.7648161562861384 2.412612092276599 9.3120933442984697 16 13 8 1.5475948166380484 1 4317 5 4249
1017 1.3109299721316363 3.4297275654048036 12.169456243365449 17 10 8 2.0511958755601754 1 4351 5 4312
1018 0.33969100428933374 3.2367229010300682 11.480935333624798 63 51 36 0.11396685892296815 5 4343 4 5260
1019 -3.7749338546293947 2.4739895975520931 9.2896438682235463 65 66 67 1.2331912262542437 1 4371 5 4356
1020 -3.2495197979412009 2.493809822339649 9.136763107500153 74 70 59 0.97990856432439011 1 4406 5 4429
1025 -6.0832693487400427 -5.58667720425154 19.750754555456808 197 201 202 2.0120274858571117 1 355 5 2 3 350 7 245
1028 -2.5381772515184688 -5.0187050854612361 19.563031027892965 98 103 106 1.4563995488975516 1 492 5 19 6 352 3 382 7 355
1029 11.315734923127696 -6.9254373282565886 32.938352628665179 117 121 130 0.80084404000174736 5 36 4 461
1030 -2.3103341723303057 -5.1784603191987868 20.480294822500031 222 222 224 1.046606383568893 1 502 5 38
1031 12.133495699827746 -7.0128706472837647 33.969277071869115 191 201 210 2.4924108914421765 4 513 2 613
1033 11.164739915904452 -6.580399080570368 32.952151196225714 99 103 112 1.607590870999182 1 778 4 533 2 661 6 502 3 437 7 478
1034 10.483819481972652 -6.3354877935005742 32.12878481964821 173 185 197 0.81388026576450789 1 794 5 92
1036 10.824841122935531 -6.5441386436645361 33.653778787255234 178 188 198 1.5794082656015365 1 803 4 578 2 691 6 535 3 474 7 490
1037 11.360016563278387 -6.1635636966441236 33.897559195141483 97 100 105 1.8943014799268039 1 882 5 148 4 694
1038 10.932041394352977 -6.0865087277519141 33.628979772798836 133 134 146 1.6415223484252075 1 889 4 693 3 530 6 586 2 753
1041 11.146001404047031 -5.678711691619041 33.102021794986463 114 115 119 2.120084344723169 1 952 5 202 4 771 6 623 2 813
1042 10.202331447954247 -5.2310084220492055 31.22797082459682 147 154 162 0.29094250996886095 5 217 4 770
1043 9.3908317082859529 -4.278564463167621 33.161822106197292 110 113 127 0.77742291326849033 1 1198 5 475 4 1132
1044 9.6331976115771809 -3.7547865571912555 34.006242583882454 116 120 132 2.5686369473149822 1 1312 5 587 3 975 2 1184
1045 9.7868195683242689 -3.1755101757046789 31.665773336041909 93 90 86 2.1756808808655919 1 1412 5 608 4 1382 3 1035
1046 9.8188350668748861 -2.9220213189404309 31.69317721517756 42 48 60 0.83839038153900902 5 652 4 1469
1047 9.8354072368223004 -2.7639320663879285 30.960596944088689 97 95 95 1.6558684040372285 1 1492 5 660 4 1488 2 1327 7 1114
1048 9.7773280555856061 -2.8756007358091074 32.121777145538957 95 95 93 1.2538040982291658 1 1491 5 679 4 1500 2 1326
1049 9.6140467626378641 -2.627296747143288 31.741502383643564 136 133 128 1.0443344053078334 1 1539 4 1554 3 1154
1050 9.5970224069879215 -2.67079245121008 33.498908654267012 112 113 118 0.21698194770388277 5 786 4 1611
1051 9.9220901845910312 -2.2959280627607335 31.268256262486439 65 64 67 0.37292709850050376 5 794 4 1644
1052 10.012355235869071 -2.1595376115066625 31.492601857003645 92 88 86 1.5245562439301055 1 1640 5 826
1053 9.9290707239408889 -1.9371579106510464 31.170085063363842 99 95 93 2.4902579198289794 1 1691 5 870 3 1279
1054 9.54923353239443 -2.02496368477907 31.271093124627559 75 76 81 1.5244420651920059 1 1669 4 1710 7 1268
1055 9.9406009318019013 -1.5523445108049148 31.186036103738633 119 113 108 1.9212812480304726 1 1780 5 984 4 1852 2 1565 3 1371
1058 9.8292562925619169 -1.3341177269306046 30.915022145090148 133 123 113 1.6948453130688972 1 1844 5 1038 2 1622
1059 9.8099328471777323 -1.1319605727944413 32.833873518616052 80 77 72 0.67593206272057471 5 1132 4 1997
1062 9.7912257433740226 0.035911348897474382 30.790992684967641 110 98 82 1.7972294647948879 1 2179 5 1437 4 2277 7 1746
1065 9.0891617477387108 0.53172919913159422 31.606713950741803 159 169 181 1.9143074053780538 1 2285 4 2420
1066 9.4497083363981886 0.53099557969466415 31.635630972200175 62 55 47 1.896304952024972 1 2286 5 1634 4 2421 3 1918 7 1848
1068 6.8773522446406421 1.1105479063943351 23.114334203024015 79 81 80 1.9149652299014448 1 2537 5 1888 4 2603 2 2377
1069 6.8592015764208245 1.1908983314633388 22.154737727646971 93 92 89 0.88646508887204256 1 2611 5 1934 4 2640
1070 6.6646904782277492 1.4901417752980093 22.487460167797209 184 195 199 1.4465105646166143 1 2710 5 2071 4 2796 7 2271
1071 7.1829201584868416 1.5328471070507586 22.218445628086457 162 166 169 1.764965500423922 5 2072 4 2832
1072 6.6156876784787002 1.5973880353843783 22.298641898732843 186 189 194 0.37405191515476188 5 2129 4 2852
1073 5.3558034421311298 1.4722285140564257 20.261771409661051 68 58 49 1.3827215733638949 5 2139 4 2819
1074 7.2957948853182675 1.7927575294530449 22.261142529873812 185 195 197 1.8735464749817212 1 2825 5 2188 4 2942 2 2662 3 2506
1075 4.86093398269358 1.2405714606565226 11.7480941364258 40 25 15 2.305055223108027 1 3073 5 2212 4 2781 2 2862 3 2700 7 2649
1077 4.7629036113070295 1.2465093143351091 11.760119183472277 48 30 16 2.1029843882593107 1 3082 4 2779 2 2872
1079 7.2038249446136318 1.9092528242732583 21.370806591859768 44 44 42 0.39273247064510269 1 2899 5 2256
1081 4.8924901689428477 1.7207664867424708 19.78990156119907 111 89 68 1.9210379292695225 1 2895 5 2280 4 2958 2 2737 3 2588 7 2456
1082 6.6017090437672286 1.9831282716501903 22.268389315249067 112 110 114 1.0023800752258367 1 2896 2 2738 3 2589 7 2435
1083 6.8999728785598569 1.9454515312636846 21.623421685606267 35 29 21 1.837328707093429 1 2897 5 2284 3 2590 7 2457
1084 5.0249776061426399 1.7941893476365087 19.618454779208196 123 110 91 0.8471031660055619 1 2928 5 2316 4 3006 2 2771
1085 6.7488448827980267 1.9801725907455594 20.719948304831007 50 39 35 1.1863561679792922 1 2947 5 2318
1086 6.9928334161668841 2.1444702474213964 22.084559560386634 133 103 75 2.449446555704974 1 2946 5 2340 2 2797 3 2651
1087 5.2394238114621094 2.0399102140979397 20.363929040219301 162 153 136 0.9588983424601647 5 2392 4 3131
1088 6.356577219369254 2.2891148177650535 22.12165526461354 45 28 15 2.0370184222301244 1 2999 5 2410 4 3221 2 2850 3 2717 7 2534
1090 7.184626184180507 2.3560178081966208 22.263753489023614 47 39 36 1.86866640033104 1 3021 5 2412 2 2852 3 2735 7 2557
1092 4.7321124874400162 1.5033860894217574 11.832228929505263 16 13 6 1.4602445436109879 1 3213 5 2450 4 3081
1096 4.812655933497588 1.6199766979078161 11.664309773600337 119 104 83 1.8716528137516311 1 3303 5 2579
1097 4.9088864138608477 1.6175873002021364 11.613264765056007 109 96 78 0.063628875943710264 5 2581 4 3240
1098 4.7145889459673453 1.6201639960111629 11.656144830476157 63 51 36 0.019710714316850002 5 2591 4 3239
1099 5.2459655079883927 2.4172732923336282 19.831206466414486 79 64 49 1.7398395336045631 1 3161 4 3352 2 2978 3 2881 7 2685
1100 6.0769162398902852 2.5502603675770539 21.047394665638286 39 31 23 0.21736875744997172 1 3147 5 2601
1101 4.7880793075177266 2.3244325245911055 19.267576865110446 68 56 42 1.568931710917528 5 2611 2 2966
1102 6.8454530474097242 2.786215628204642 22.058341608793057 142 123 103 1.2546219446465012 1 3166 5 2638 2 2994 3 2911 7 2709
1103 7.1547242404655984 2.8103078897686098 22.124681911323709 171 154 132 1.9762189769564202 1 3173 5 2639 2 2995 3 2913 7 2710
1105 5.0310478815215376 1.6899498019988202 11.576682089143368 70 58 42 2.2625997539665397 5 2647 4 3305
1106 5.3308902258352564 2.7176069560943774 19.97697032950169 134 123 105 1.821548732446806 1 3238 5 2735 4 3503 3 3005 2 3075
1107 5.2101161526392463 2.8005717069814442 20.160174877011787 96 88 69 0.57570918265574511 5 2769 4 3535
1108 7.1533181993850183 3.0367666735951508 21.224121683310219 18 9 3 1.5565857579281559 1 3278 5 2772 4 3592
1111 4.9298424666555283 1.8523740328026432 11.840630713896036 70 57 38 1.7732122223950761 5 2776 4 3447
1112 5.6409794753020162 2.8488232858237703 20.176121981615026 40 28 12 2.0117518334979101 1 3263 5 2786 4 3555 2 3113 3 3048
1113 5.699892298134511 2.8473716399363931 19.979209896349587 129 116 100 1.4069614387389673 1 3276 5 2797
1114 6.7358451660079144 3.1102435615766382 21.713593893771055 46 39 29 0.043580387269554891 1 3277 5 2798
1116 5.149317767951394 2.8847903616204076 19.897899378599636 102 90 74 1.7014890456189442 1 3313 5 2832
1117 7.1211835543017425 3.190220924356495 21.213785488410281 100 83 61 1.834386058773801 1 3338 5 2858 4 3667
1118 5.0732436538053429 1.9440700708166501 11.553504658142961 64 52 39 1.8512824108413624 5 2892 4 3584
1119 5.0827858224195266 2.9935573286549739 19.634852750174172 143 128 107 1.4895894456411249 1 3366 5 2905 4 3675 3 3161 7 2916
1120 4.7221159132784978 1.9804955967451732 11.76654846988162 151 136 121 0.40904294324955454 5 2912 4 3609
1121 4.8613900993093191 1.9640343811192267 11.642410514265004 82 67 48 2.3577744685832887 5 2915 4 3599
1122 4.7472236524333118 3.0032122497483309 19.113088636707737 74 61 44 2.0045188254133524 1 3399 5 2951 2 3247 3 3203
1123 5.6658464854173367 3.2090742753893426 20.27907025809137 105 97 86 2.2421748696795905 1 3400 5 2952 2 3248 7 2958
1125 4.8644806271927177 2.0839039919329392 11.623276177509242 41 28 9 1.6800425990946393 1 3562 5 3019 4 3727 7 3121
1126 4.7141466286236824 2.1051738340949395 11.746818371324377 94 84 72 2.0486191101635716 1 3561 4 3739 2 3358 7 3120
1127 5.1978962523203593 3.3550498814277869 19.73440344088247 148 133 114 2.0012464166685113 1 3483 5 3067 2 3318 7 3040
1129 4.7004331059939073 2.1830661782305323 11.738784111938811 153 145 134 0.68519868576944476 1 3601 5 3093
1130 4.4860006175774298 3.2942587783435044 18.613088431469805 163 143 119 1.3433909839229585 5 3137 4 3903
1131 4.8616319264075489 2.2068621014220624 11.57591605651491 51 38 22 0.044945390367980904 5 3139 4 3871
1132 4.8575876236642737 2.2325086871982989 11.731930459086371 88 76 62 1.682462007164226 1 3636 4 3870
1133 5.0035846167002713 3.5506316001596572 19.584315068666978 129 116 99 1.7141938786104713 5 3178 4 3983
1134 5.0199929324921344 3.4735645473406396 19.103481625819548 152 137 118 2.2305826804805973 1 3568 4 3984 5 3179 7 3102
1135 4.9404484110825448 2.2325180278170302 11.540906614776594 151 138 121 1.3603324098396155 1 3648 5 3182 4 3895
1136 5.0638043252118141 2.2548656034161718 11.479622997089157 70 61 52 1.3335112697347788 1 3675 5 3200 4 3941
1138 5.1100388069895324 3.8349650788332017 19.542860719397265 123 107 91 1.1348371848989927 1 3667 5 3315 4 4148
1139 5.1239342625548359 2.4586347554559094 11.908119879501474 145 137 124 0.27890717508668772 1 3735 5 3317
1140 5.9417160374669367 4.0411311701472785 19.787684641144956 64 52 36 1.3666488305932851 1 3716 5 3380
1141 4.8114805849536291 2.4604935378150152 11.555979200433711 148 143 137 2.0244912146726195 1 3771 5 3405 4 4172
1142 4.7295404260810274 2.5602431335648927 11.664814372024502 149 145 136 0.16257841278473362 1 3821 5 3475
1143 4.7137843119819829 4.0708286187145992 18.713116713610738 29 17 5 1.5750897581898975 5 3532 4 4370
1144 4.7978686424268986 4.0650521527896375 18.672860976000795 24 12 4 1.4714958087027208 5 3533 4 4371
1145 5.0527102545137366 4.141547110576008 19.023568334990667 61 51 40 0.64388269994617098 1 3814 5 3535
1146 4.8622123127089436 2.5766816683282703 11.485899127056491 184 181 174 2.0045486684071916 5 3541 4 4320
1147 5.7168082862437659 4.4451131286942989 20.322857883808418 29 21 10 1.3804880775890922 1 3815 5 3549 4 4395 3 3662
1149 6.2590222750853242 4.5240137842669883 20.082354746797733 78 61 45 0.52761788558431555 1 3840 5 3601
1151 6.2109950340787456 4.3949905360722781 18.356127590198792 55 45 33 1.979439552806576 1 3953 5 3739 2 3777 3 3832 7 3471
1152 4.864267685773223 2.8370795581737074 11.452702757721323 124 119 113 1.6932765661059044 5 3804 4 4614 2 3825
1154 5.0551943812348119 2.8330630413268119 11.338510650950512 105 107 102 1.1643199052995958 5 3823 4 4636
1155 4.5733047068181092 3.0071475680686639 11.685977853313851 179 176 171 1.2736254231062445 1 4076 5 3921 4 4744
1156 4.9389619406819758 4.9911940361529386 19.194160337439246 32 24 19 0.88426691258444334 1 4119 5 3965
1157 4.7010302586038524 2.9898323721030096 11.268474456194316 135 132 127 2.3057528535456471 5 4027 4 4843
1158 -2.9194529715473654 -4.8307572312694278 19.563527627824687 133 129 128 0.11465669526445661 5 79 6 433
1159 11.507247195129969 -6.296572403660111 33.037820837857289 85 88 95 1.6235227664551592 1 825 5 101 4 605 2 713 6 549 3 480
1169 5.3204690231541045 -0.63352996539190731 12.138683218826543 20 23 28 1.5635980561343317 5 532 4 914
1174 5.4383709847189268 -0.10705266207219216 11.788211669505191 146 132 119 1.4853887581286829 1 2257 4 1389 3 1622
1175 1.462157054134865 -0.90708098071121457 14.419561993643342 133 130 123 0.64740719577939143 1 1830 4 963
1178 4.8226010650137932 0.61576943433067477 11.95602969136314 144 119 99 1.1230323935323001 5 1589 4 2103
1179 4.4318093319445131 0.40949083521779273 20.690084036705315 135 134 139 0.50374084289788845 5 1643 4 2243
1180 -3.4022988268880177 0.094388644137801972 10.041264692548305 146 143 136 0.22380252162152547 1 2456 2 2202
1181 -2.6065177363250664 0.22349076738491058 10.174091516510815 34 23 17 0.3031903294467112 5 1795 4 1163
1186 4.7548264588454705 1.1499051646399168 11.92775748353351 142 130 114 0.68765229580703169 5 2131 4 2656
1190 -1.5875657505053899 0.83120931646186524 10.50336841031239 21 21 19 0.82680499731778911 1 2962 4 2148
1194 4.6964396106493371 2.0264939508100306 19.29000837883013 64 51 35 1.2606894945372049 5 2439 4 3176
1195 -2.7799034886312439 0.97378357504680713 10.072171580721417 37 44 28 1.7902269318920974 1 3123 4 2294 2 2931 7 2737
1198 -1.2597094305767322 1.4680904129746466 10.453283195480168 34 22 13 0.84527671224499801 5 2897 4 3139
1200 4.377209923196058 2.9606794311388822 18.407953551863493 134 118 99 1.4673449798480835 1 3426 5 2985 4 3732 2 3266 3 3237 7 2985
1203 -0.42778256369357504 1.8093543321461059 11.431456817054112 53 44 32 0.7137260420741417 1 3494 4 3492
1205 -3.4390749719643261 1.4388294281306351 9.9151384926165864 126 115 97 1.5311168618110553 1 3470 3 3266
1207 -3.5388079748612364 1.4818545238468257 9.7994940953190106 127 111 96 0.93142194301752523 1 3512 6 3254
1210 0.48091189804181833 2.2717269309612642 11.734150018918726 117 93 57 1.4615746882891871 1 3708 5 3359
1211 6.8017221849080984 4.3565162731458251 21.120849826571771 82 66 50 1.45661482863368 1 3717 5 3403
1215 5.9256065806179556 4.3117385019959347 19.7741207574886 63 53 43 1.698583056588908 1 3805 2 3647 3 3653 7 3340
1218 -1.8650222046183651 2.2934388867460247 9.9857583471691456 120 103 87 1.7979568856327313 5 3832 2 3858
1219 0.26603423277104926 2.8231167393426637 11.841552713894496 136 111 81 0.60626796457939713 5 3835 4 4620
1222 0.44399124291015923 2.8448620713888655 11.558955127060171 43 25 10 0.43718565499665651 5 3908 4 4706
1225 -0.65562597541614753 2.7871991814813168 10.698870060063241 41 36 30 2.1921811298339202 1 4200 5 4124
1229 -0.31000901530411196 -1.8842204285641186 12.707135027333823 141 144 149 0.42760021057022196 1 1262 4 48
1231 11.910979537327524 -10.611258439924846 35.243094956567909 173 191 205 1.4967378511590492 1 260 4 69 7 139
1232 11.781303171399543 -10.051172915113963 34.8182072104008 112 128 143 1.6212074364522595 1 302 4 112 6 61
1234 11.765004260853187 -9.8036047204594503 34.708223983586691 154 172 186 0.36260075472718567 1 331 4 135 7 183
1235 -0.53340475025585699 -1.5792954599244164 12.533265294260447 90 91 93 1.1233202454386557 1 1417 4 139
1236 12.707955224468085 -10.275650434923781 36.180812604368157 178 196 210 1.1053604297913675 4 144 3 75
1237 11.91929978878207 -9.6329492779165129 35.14172403819979 128 142 153 2.5645986338228299 1 373 4 168 2 250 7 203
1239 11.839545765761279 -8.8487649103839807 34.703190774211585 107 114 122 2.606898384717629 1 452 4 240 2 328 3 303
1240 11.382051262895255 -8.1664956667901425 34.341109228487511 127 133 145 1.65479304655533 1 529 4 314 3 338 7 301 6 266
1241 12.001678729525963 -8.1134499143509409 34.161038932332097 121 122 128 1.8223185931937234 1 539 4 315 6 261 3 336 7 308
1242 5.406080595299815 -1.3541941642220046 12.306666622815522 119 130 155 1.7947742411517604 1 1532 4 359 2 1233 3 925
1243 11.161392583998104 -7.6474082907249281 34.116481773858808 113 122 131 1.7577440887467179 1 628 3 370 6 330 2 506 7 361
1244 12.128820472359486 -7.602227544325646 33.885615997515899 125 128 134 1.964247926393802 1 629 4 393 2 507 6 308 3 365 7 372
1248 10.574196550741577 -6.7891494899558369 32.372303487351047 125 129 138 0.70299140786000547 1 727 4 454
1249 5.3353563120704166 -1.1548570610031719 12.274678387376277 42 54 68 1.4253539078760873 1 1641 4 479 7 1428
