# 3D point list with one line of data per point:
#   POINT3D_ID, X, Y, Z, R, G, B, ERROR, TRACK[] as (IMAGE_ID, POINT2D_IDX)
# Number of points: 414, mean track length: 2.9002757352941178
501 -2.7332010171127812 -3.2937592300043921 12.702346575746033 139 135 135 1.1912000005367709 2 501 8 34
502 -3.9168679223074161 -3.2816677968041357 12.387889071707646 109 113 116 1.3869452562417992 2 465 8 48 9 407 10 345
503 -3.7589528759367825 -3.2904043344216061 12.473803601037423 99 99 101 2.2102289239424335 2 472 8 49 9 408 5 396 10 353
504 -2.8509550214088568 -3.2454187659860656 12.707923119951641 89 89 89 0.51298121050023493 2 515 9 419 10 386
506 -3.2923866576281 -3.0961325216830815 12.472488819604269 107 105 106 1.9014794226983263 8 91 9 478 2 565 5 426
507 -2.5406683190783457 -3.1404653144936852 13.076959024293311 110 106 105 0.86170542204541933 8 94 9 500 4 473
508 -3.6855285315578068 -3.0787427057044883 12.457960378782275 108 106 107 1.6183863509354635 2 552 8 103 9 487 1 448
509 -3.5934384460723146 -3.069146418367902 12.429674992113105 114 113 113 1.6441344877583621 2 564 9 488 4 434 10 426
511 -2.3706110017377306 -3.0433912587566994 13.069914265012059 95 93 96 1.1734225632491395 2 664 8 113 5 472
512 -2.2461006432227548 -3.1093004290331154 13.374685268110568 134 132 135 0.17149556510012889 2 665 8 114
515 -4.0487230544135864 -3.025259487719103 12.339508066833233 83 86 93 1.4591981901770048 2 575 8 122 9 508 5 453 10 433
516 -3.9555838173755555 -3.0135192891621418 12.380130067286544 103 104 108 1.3188288841680151 2 585 8 123 9 516 5 458 1 454
517 -2.7070778871855024 -2.9722313941872769 12.805191132496864 99 95 94 1.7167036737350103 2 675 8 125 9 547 10 473 1 499
518 -3.2809345209775542 -2.9040222040981698 12.331022569951088 158 163 166 1.9608824870948278 2 658 9 545 4 502 1 495
519 -3.4220147501674885 -2.9339166383128927 12.478104606532185 108 112 113 1.3641267303317137 2 657 8 132 9 544 5 489 10 467 1 490
520 -3.5454601394232816 -2.9139062964998086 12.412982388085473 143 149 149 0.9343406962482772 2 656 8 139 9 552 5 498 1 481
521 -3.8198167511766594 -2.9550897023921121 12.487800424889068 138 142 141 0.69877905710691746 2 635 8 143 1 472
522 -3.7256804620644459 -2.9731222871104626 12.603072330666786 113 117 118 0.57327475754604784 8 144 9 543
523 -2.7025090130372007 -2.8648585339727783 12.722706461201247 151 151 149 0.90884555375992282 2 705 8 149
524 -2.5098423657239937 -2.9111923636789259 13.119892408229926 116 114 115 0.28377172613569945 8 161 9 577
525 -3.9109418810020684 -2.8747205842692716 12.410221938052219 124 124 122 1.9004765849998313 2 673 8 172 5 518 10 481
527 -3.6736543470386875 -2.782043558201218 12.39379357592032 134 138 141 1.5401688105071569 2 712 8 192 9 589 5 540 10 514 1 541
528 -3.5471983746338589 -2.7763378615703829 12.410345031803773 103 108 111 0.9484697674601219 2 713 8 193 9 590 5 541 10 521 1 543
529 -3.4380826586051532 -2.7788847131816738 12.454376999193261 137 141 144 1.6951579606979299 2 718 8 194 9 591 4 584 5 542 10 522 1 544
530 -3.9088079250481802 -2.787394035966277 12.383839155405477 108 112 113 1.5016714189174696 2 703 8 204 9 587 5 551 10 512 1 539
531 -3.7941794198556296 -2.791536843322135 12.425714708278665 90 95 99 0.7177825586849369 2 704 8 205 10 513 1 540
532 -2.3759088727403106 -2.7357955050996376 13.011254797683154 79 78 82 1.7110891243909101 2 793 8 213 9 617
533 -2.4661108321197882 -2.6988502757974993 12.856974903848092 145 153 156 2.3126964309718669 2 792 8 219 1 564
538 -2.0947145170566102 -1.7405743203875252 9.3545390552991794 109 113 114 1.5645495968176184 8 258 4 816
539 -3.7001187424836472 -2.6523846497683099 12.446301259537686 87 92 94 1.6819371244614008 2 777 8 269 9 635 5 593 1 593
540 -3.6039916146907132 -2.6666278428109433 12.5256956417868 124 132 135 1.4810291751420586 8 270 9 636 4 639
541 -1.9401408077937849 -1.6987735269175994 9.3246618108279051 86 90 93 1.5754434563229625 2 1051 8 271 1 745
543 -3.8990432379048121 -2.6296714374801167 12.287612782129498 115 115 113 2.2591050808819122 2 765 8 278 9 633 5 591 10 573 1 587
544 -3.7900140475215478 -2.6327880808379192 12.342827617878239 123 127 126 1.6947689828260084 2 776 8 279 9 634 5 592 1 588
545 -2.5661498556294933 -2.5983389644203583 12.903133909406684 123 131 134 1.7783038786598535 2 854 8 284 9 669
546 -4.1821938745165639 -2.6468212461616405 12.332375232700922 141 141 141 0.94751796249865428 2 757 8 290
548 -2.4867679745787052 -2.6050353560022317 13.06485014825812 111 111 110 1.9706624720172514 2 855 8 297
550 -3.5309820202780848 -2.4583562419039766 12.233553045728792 156 164 167 1.8143163706421817 2 850 9 712 5 695
552 -2.3045839788486515 -1.6545915142648258 9.3345355198712259 76 80 83 1.9490468295550187 2 1077 8 318 4 876
553 -3.6957156710188066 -2.4871988188499912 12.374035020293105 103 107 108 2.2403757371477582 2 849 8 325 9 711 10 649
557 -3.9128686523799399 -2.4842081465308778 12.27650914945208 122 121 117 0.99975857320496575 2 840 8 330 9 708 5 691 10 640 1 605
558 -3.8314681869675074 -2.5056243641767075 12.405754752571898 101 105 106 0.87239131377827717 2 841 8 331 5 692
561 -2.6504749484201025 -2.530487258236183 13.175141804730789 94 99 102 1.9247737045698208 2 899 8 336
563 -3.6883078959805773 -2.3339505407289307 12.283470013644891 131 133 131 1.421489453404541 2 923 8 371 9 762 5 748 10 711 1 648
564 -3.2509332112059686 -2.123893421676224 11.521455150735598 161 162 157 1.0641720471777745 2 970 8 373
565 -3.9115318030259143 -2.3378751555719499 12.23439625525725 103 102 98 1.0016150818203844 2 915 8 378 9 760 5 745 1 642
566 -3.8199071588448708 -2.3430701189761098 12.319980809996498 114 118 117 1.5958735123113672 2 922 8 379 9 761 1 643
567 -2.1265783971807029 -1.5104914351327283 9.3118811000231378 153 143 133 2.2283553241978917 2 1159 8 380 9 936 4 963 5 888 10 1004
568 -0.45151520039940418 -1.2024331434576401 8.8150302862050349 96 89 85 2.2743052101349348 2 1348 8 381 6 167 5 955
571 0.051743228649665698 -1.2835616691826797 9.5040965341589523 137 138 141 2.0470004245023778 8 388 9 1021 4 1117 5 942 10 1138
573 2.9307888282190753 -0.64192817044116246 8.2425618663988107 113 109 106 2.29073767145533 2 1772 6 667 11 1344 5 1155
574 -2.3013640383521583 -1.4471845621822346 9.2491162213437388 98 93 87 2.1418236178832473 2 1194 8 415 9 978 4 1016 5 919 10 1033 1 812 6 51
575 -1.9578290653178803 -1.4327713970613836 9.3528027981112292 93 89 83 1.568379255991772 2 1218 8 416 9 986 5 924 10 1034 1 832
577 -3.7518830636936569 -2.1337923539382198 11.961839896900191 128 129 126 0.80798299144175334 2 991 8 435 10 780 1 697
579 -0.45127576997177987 -1.124099567776178 8.789607901327436 73 72 70 1.8458218877119212 2 1418 8 439 4 1174 5 1002
580 3.050087792841977 -0.55166006754664143 8.1294236476027297 13 17 27 1.6009321966132661 8 442 6 760 4 1511
582 2.9529128254326582 -0.56086689676874324 8.179163521430441 49 49 49 1.8633282078551039 8 451 6 759 4 1510 9 1330 2 1846 5 1223
584 -1.1292797279921187 -1.0617274505277698 8.2308118231714733 91 86 82 0.67677743781389776 2 1429 8 454
585 0.070065378356044442 -1.1620430600507488 9.4731242469079309 111 116 119 1.6465564441942246 2 1430 8 457 9 1096 4 1195 5 1019 3 275
587 0.69534295250123446 -1.207402434870908 10.136232708134498 169 168 173 1.2333770457398618 2 1443 4 1201 5 1013 9 1098
591 -0.89446175047301779 -0.98723614836892815 8.1432456268919715 108 101 97 1.7920236891027652 2 1488 4 1207 3 600 10 1295
592 0.44420016106745791 -1.1441562670951066 9.8486771688134791 89 93 97 1.34188632331446 2 1467 10 1215 3 231
596 0.62097697175276201 -1.1370743286317917 10.162740899116042 130 135 139 0.00065734581683180124 9 1132 6 539
597 2.8486997585088418 -0.51301530555845865 8.2222067823836102 89 72 62 1.6587338533363449 2 1893 8 504 6 841 4 1557 5 1264 10 1639 11 1417
599 2.5049999682918735 -0.60593968989237745 8.4664227599832458 61 69 76 1.7680201982875865 2 1818 6 772 4 1495 5 1230 11 1373
601 -1.9692162836262794 -1.2461847386694542 9.2632958516459638 72 69 64 2.2080248720971252 2 1332 8 517 9 1093 4 1126 10 1147
602 0.69684618572667212 -1.0766915776276043 10.016439419798701 159 159 157 2.0444898556670723 2 1523 6 569 4 1281 1 950 8 519 10 1266 3 226
603 2.8970898474959341 -0.49204981544896187 8.1807787882704339 106 88 78 1.6282698303893042 2 1910 6 862
607 -3.568352222778834 -1.8502079717655504 11.973845177540769 156 144 132 1.9183930420558399 2 1140 8 542 9 969 5 948 10 922 1 780
609 -0.1479149507686881 -0.97852091581909784 9.2413076593510972 99 99 97 1.7860973410523822 2 1567 8 554 4 1302 5 1131 10 1313 3 484 9 1202
610 2.6972800382657129 -0.4806566035865425 8.3076840651972148 117 98 81 2.2057408957573421 2 1920 8 558 6 907 4 1584 5 1294 10 1651
612 -1.9622586911973363 -1.1228882388109145 9.0559989843783573 111 104 94 1.6265035730476889 2 1426 8 579 10 1213
613 3.0777968830645004 -0.37972432866155348 8.1586144138980377 20 27 35 2.1277053363445013 8 589 4 1659 9 1470
614 0.83433935756520228 -0.94047181458741747 10.135517839301373 141 145 148 1.7990956773964732 2 1624 4 1372 5 1176 1 988 3 298 8 605
615 2.6185422665485363 -0.43189726729444899 8.3546540182745019 141 128 115 1.5296835393871024 8 606 6 979
617 0.20958254531182779 -0.87990555930315484 9.5843744674570033 94 93 89 1.9013713628118409 2 1638 4 1389 10 1382 3 497 6 647
618 -0.12266805205176337 -0.86922456110180935 9.2485900531177609 124 112 100 1.6586765423251346 8 622 1 994 3 582
619 0.56327394390043672 -0.90673024570678185 9.9966295868933646 112 112 111 2.1243416267683224 8 624 6 736 4 1390 10 1375 2 1639 5 1200
620 -1.9463398620920869 -1.0296839415407892 9.1654641639633905 88 85 80 0.074799446457693847 8 632 4 1270
622 1.1983290678117648 -0.85262580514428421 10.541076051698177 163 162 167 2.0892093465968871 2 1690 6 945 4 1441 5 1239 1 1006 3 308 8 672
623 2.8597706628847588 -0.29424213557268625 8.1494853060274561 49 33 25 1.2482176737248818 8 673 6 1125
624 3.0476355217755402 -0.25691227687027424 8.0632892842948483 105 95 85 1.6463281737422484 2 2110 8 680 6 1160 4 1769 5 1469
625 0.0013902823239512693 -0.81027212036563045 9.3658739119022396 146 136 124 1.7025512702192447 2 1688 4 1421 10 1426
632 0.93633729429956769 -0.73008811934413009 10.390098130285489 136 129 123 2.1033978186188023 8 770 9 1376
633 2.8832279913829009 -0.20938760710210363 8.1893885666208082 87 71 58 0.052175658268774704 2 2154 8 774
635 2.6050827421701368 -0.23670818979969463 8.2933065165714464 110 95 84 2.0301472812447856 2 2130 8 795 6 1226 4 1803 5 1525 10 1849 1 1184 11 1635
636 0.62178830163866317 -0.6687659593824693 9.8873132474450269 60 56 53 1.0716867881759757 8 797 6 976
639 0.72498223008225837 -0.62783980842459119 9.9302149130736979 63 56 50 0.28363830495689341 9 1427 6 1035
641 0.53569321106217693 -0.64222707917106325 9.9296691036952716 105 95 86 1.655846513044575 2 1831 8 824 9 1426 6 1013 4 1547 5 1369 10 1531 1 1068 11 1383
646 2.6002976667690541 -0.14782532383236893 8.2666998904434372 130 119 107 2.2700875778216254 2 2199 8 884 6 1348 4 1883 5 1597 10 1900 1 1212 11 1704
650 0.38247776685517276 -0.48935289622977113 9.7182592749593084 92 83 77 2.3644258607938267 2 1949 6 1146 1 1113 11 1488 3 860 9 1531
652 3.0222583898895361 -0.0254494263249628 8.0730717048790233 47 35 26 1.5948952356699577 8 953 6 1519
654 -0.85514224146454043 -0.44773918541178176 8.2245642187516736 161 150 136 1.7694728353622626 2 1961 3 1248 1 1114
655 2.6822426467129623 -0.05304439776926885 8.1771899563224189 120 113 99 1.7010798390830071 8 965 6 1490
656 2.9120601842390617 -0.018339397576315912 7.9428951405606147 66 55 49 0.24140561287349194 4 1997 11 1811
657 1.3952239699519569 -0.43054554198164346 10.444266284736472 88 91 100 1.9370176700696591 2 1986 6 1381 5 1512 10 1663 1 1137 3 624 8 982
658 1.1768461326717543 -0.44332646395048891 10.454244852385067 90 90 91 1.786859018524575 2 1981 8 997 6 1358 4 1702 10 1650 1 1131 3 699
659 0.13357064781059075 -0.45572799337885778 9.5039275799984129 137 128 119 0.53961926571196261 4 1680 3 976
661 -1.1612635045454518 -0.33218005769747272 7.8818791346655184 36 26 16 1.3954495525652881 2 2052 8 1062 4 1755 10 1807 3 1512
662 0.44808808261425304 -0.34665838790794201 9.7550595575799477 70 65 59 1.9850453984243284 2 2054 6 1320 10 1734 1 1140 8 1067 3 1016
664 2.5978531854067084 0.025360719607761876 8.2254108525253695 52 43 34 1.7279002644508998 2 2341 8 1074 6 1613 4 2035 5 1776 10 2042 11 1838
665 -1.9854962521310142 -0.4086378252128221 8.1579712866198726 169 161 150 0.87433429214648317 2 2000 8 1090 1 1123
669 1.1816815046887323 -0.27792351804372428 10.457529016860772 131 131 129 0.18405893324843212 2 2098 8 1119
670 -0.47937002058126399 -0.2551125268670712 8.5834196470648294 125 110 92 1.0273414533049101 2 2128 4 1827
671 -1.2367011627457347 -0.24881135150714584 7.7971035780398621 120 101 84 1.5780404695679227 2 2140 8 1159 6 876 10 1871
674 2.594426131868798 0.10680003974520608 8.2064434752424624 151 141 129 1.6540315156760523 2 2401 8 1186 4 2115 5 1866
678 2.4998634114562055 0.11427435051944729 8.3586679875378156 119 107 95 2.0847033898808589 2 2400 8 1221 1 1302
680 -1.1531584782700131 -0.16149745425734771 7.8340500125182686 40 23 8 0.44685229609411059 8 1264 6 1031
681 0.51011082175458689 -0.1368349521019305 9.7544193330695368 85 78 68 1.8030669858805943 2 2198 8 1266 10 1879 5 1760 11 1701 3 1256
682 -1.2901749145849004 -0.16631123113732596 7.8063742876718409 148 136 122 0.83266493507536166 2 2210 8 1269
683 -0.90188515038127348 -0.14778000777600978 8.0631491229763377 91 74 56 0.47429659788553546 8 1272 6 1143
684 1.1893855267280795 -0.11594503652756365 10.515944454121785 131 126 122 1.4435012578940771 8 1282 9 1794
685 0.14207848346301605 -0.12099569711680805 9.5419222682544902 181 172 157 2.0705912256419658 2 2224 8 1302 4 1952 5 1772 10 1888 9 1811 3 1401
687 2.5884769010440558 0.21191303048121593 8.1822810252902691 122 110 96 2.0319864248828194 2 2491 8 1310 6 1873 4 2226 5 1969 10 2165 11 1965
690 0.2653601965967512 -0.093281112678726297 9.71750295538288 96 86 74 1.7378813395090105 2 2238 8 1346 9 1831 4 1974 5 1793 10 1898 3 1402
692 2.8031880966470419 0.26561149515865023 7.9409444913698044 94 87 81 1.284979615738683 2 2539 8 1356 1 1365
693 -0.90815585222068163 -0.077387492882855208 8.0297234462952147 64 52 40 0.2072867965622886 8 1358 6 1247
698 -2.6364889610137996 -0.11887770746584805 6.9888975046262436 125 113 99 0.36885574963245088 2 2273 8 1432
699 1.1694562750879294 0.067172588301680311 10.318594350611006 144 140 137 0.30833774626914351 2 2326 8 1444
700 2.5811666873042722 0.30453217533575105 8.1467081119773841 124 111 95 2.0734468781413296 2 2566 8 1447 6 1987 5 2081 1 1381
701 2.8350157822878956 0.33820044136545951 7.9314866733282612 150 142 133 0.9678670334253392 8 1448 6 2014
707 -1.4947356489427528 0.0096661458964868701 7.4614901964374232 107 98 85 0.54536995553678969 2 2372 4 2111
709 -2.1885478338411524 -0.012278675091191606 7.0392607437102637 156 155 151 0.3056298141540077 2 2370 6 938
710 0.02100725925282896 0.089176964439760573 9.5852659661468085 167 158 141 0.66763744351839582 8 1545 9 1971
712 -2.7028682854106831 -0.039673425996762358 6.8984054051829968 98 91 83 0.78353828114570234 2 2356 8 1550
713 2.8681429840041948 0.41487936730060848 7.9263531070319706 154 152 148 1.2347034300633031 8 1560 6 2113
714 -3.0474270384729407 -0.061213940971767022 6.8749119148018547 59 52 46 1.8413840163580601 2 2336 8 1565 1 1241
716 2.5953054933757436 0.39511465814179886 8.1286259570278236 114 95 78 1.3895079570473241 2 2666 8 1588 6 2095 5 2184 10 2318
718 0.21417023531800686 0.14706607555414619 9.6158604892409016 165 149 131 2.4279571728948239 2 2398 8 1603 9 1996 5 2023 10 2079 1 1291 4 2175 3 1748
727 0.37408228363696738 0.28287447975118657 9.0884586122092212 90 78 64 1.0440746940158012 8 1719 6 2006
728 2.5565198723880895 0.48454327185881774 8.064350355049223 121 109 93 1.1044992918426169 2 2763 6 2226 5 2292 4 2521
729 2.6562899784694909 0.50604372887839033 7.94670688730361 134 113 94 1.547868008054976 2 2784 6 2248 5 2319 11 2237
731 -1.3064302781551984 0.17144884009559661 7.6763546697238372 44 35 26 0.98242288478353545 2 2510 8 1734
732 2.8318566270921308 0.51651465047653577 7.9486136518451476 133 114 97 1.0460508867422909 8 1741 6 2257
733 2.5600313145659888 0.49900921903676182 8.2087534669219266 141 133 120 0.36590284168911491 8 1746 6 2246
743 0.60480104882267927 0.36033530893797966 9.4340447421236693 49 39 29 0.907794960633584 8 1811 6 2108
745 2.4591347787678668 0.49304341284439296 13.45150165009251 89 101 110 0.71500418685207667 8 1823 6 2394
746 -1.4742016143602998 0.22521027266457069 7.3105320243843739 119 111 98 0.72888900990632877 8 1828 6 1581
747 -0.39111683062220098 0.31952789169114415 8.3253254728784611 176 164 142 1.4874378171009708 2 2616 6 1956 5 2252 10 2262
748 2.6470535658460528 0.57035891871393107 13.613172741693251 111 112 114 0.61261316953013012 2 2525 8 1856
750 -1.3389549365083371 0.28369873915525279 7.3861387156214864 34 25 16 0.12520148218518634 2 2649 6 1716
753 -1.614712237188511 0.26885869679246494 7.2259253475807883 119 111 101 0.10658675860249309 2 2648 8 1895
756 2.7001856625804628 0.63467780106276028 7.988151656771552 46 28 19 2.1629780863002628 2 2901 8 1921 6 2435 11 2364
764 -2.973844629949157 0.19170713560757974 6.8003696797050797 72 61 52 1.2571365512792998 2 2614 4 2398 3 2910
765 2.750966570820188 0.73567183914795653 13.632998480921819 185 186 181 0.66822653250389119 2 2624 8 1977
767 2.577155538669448 0.6749451832186899 8.0638121172435007 76 67 50 1.9239361664633823 2 2931 8 2000 6 2499 10 2535 11 2380
768 -2.4717216948373215 0.25652990049764657 6.8449385186922793 133 119 106 1.5849644349046352 2 2686 6 1448 5 2377 1 1390 11 2301
769 2.4710103230197169 0.6751109643613703 8.1777515938726868 72 62 52 1.3169887704808652 2 2919 8 2005
770 2.8229713526302462 0.69994916999802959 7.8885132370043198 141 127 111 1.890918794332032 2 2965 8 2006 6 2539 5 2541
772 -2.2925708888145397 0.29710196206173167 6.885807464434115 132 118 105 1.1539485681908186 2 2721 6 1572 1 1423
781 2.7315305710214299 0.73988436004635283 7.9909256901634897 114 93 72 0.24760096906998885 8 2074 6 2605
784 2.5725195514657218 0.85873106154203427 12.942252138742408 95 93 96 1.4354929377180667 8 2088 6 2721
785 2.6110540615097442 0.73548842163510508 7.9696536246971936 126 101 81 0.84172650868124044 8 2090 6 2593
787 0.37884975338576665 0.60653295570681454 9.184604614568574 142 129 112 0.17625782072798715 6 2392 4 2611
790 -2.126557629283385 0.37163074077645641 6.8805049362524171 169 162 151 1.1550834056791943 8 2113 9 2470
794 0.64759646550540573 0.67862075636101127 9.3405205075461453 171 158 141 2.2633793782296481 9 2462 6 2507 4 2661 5 2519 3 2405
795 -3.2430025104434099 0.31261441602652207 6.8071932290580897 46 47 42 2.0514369186825312 2 2768 8 2143 1 1417
796 0.84809179947077284 0.69455976374855377 9.4479883502984094 46 33 17 1.9605784499672869 2 2850 8 2148 9 2463 5 2513 10 2446 3 2371 4 2672
797 2.5148253469854707 0.77008808387727523 8.0624288137149787 130 126 114 0.123547034554323 2 3012 6 2654
798 2.4542605461524296 0.77837134731332391 8.1099024446795998 152 140 125 1.7216772022858444 2 3011 8 2155 6 2668 4 2798 1 1567 11 2475
799 -2.5736623696460312 0.37453120363330594 6.7280276577500526 147 129 115 0.16554289624904245 6 1684 1 1460
801 -0.92192742252755333 0.53402321962080679 7.8678463871995632 94 81 72 0.94857985313220161 8 2163 6 2215
803 2.8933978015010826 0.81050629737889635 7.6896308132935074 123 132 137 1.314248586533302 8 2172 6 2761
805 -1.2173222690520502 0.51196460566154045 7.5316074891895548 55 43 30 1.383903765844007 6 2135 4 2685 3 2855
809 2.7078662102793238 0.82413619745741362 7.8360423842825551 70 52 44 1.4964413153531522 2 3083 6 2769 4 2863
811 -3.2551460323696042 0.367371605093474 6.8053407847693714 83 82 78 0.88721069015178822 2 2820 8 2214
816 2.511770696339112 0.86458494331898272 8.0567265374356385 170 166 161 1.8130717374457754 2 3096 8 2258 4 2876 11 2568
818 2.2115994352694432 1.0868419754802954 13.143474106244897 96 73 59 1.8209279163959342 2 2876 8 2267 6 2903 4 2705 5 2571 10 2433
819 2.4128906223754081 1.1029922628449225 13.207730663464304 106 88 67 1.8074404779575794 2 2877 8 2268 6 2915 4 2716 5 2572
822 0.82012464389107098 0.82943489922398661 9.3274199878298099 126 114 100 2.0305650435795712 8 2290 9 2590
824 -0.93985271809707105 0.65227181073423102 7.9796306608361842 165 146 129 0.034251435954884432 8 2305 6 2407
825 -1.7571198919394833 0.55286399058394797 7.0796065277609523 21 21 19 1.8942744772606279 2 2962 6 2148 1 1501 3 3094
826 0.44610287840231372 0.83988524759479666 9.0723879055099328 137 124 107 1.7847712716873922 2 2997 8 2330 9 2628 6 2753 4 2815 10 2591 3 2763
827 -3.3961590984066801 0.44690649330712495 6.7121020945251173 113 97 84 1.8077142038301464 2 2923 8 2344
828 2.592583386753192 0.95106687555068858 8.2131149574795597 150 147 142 0.30052984077889078 2 3154 8 2352
830 -3.2522011408161036 0.47430373010533894 6.7748688600760296 105 96 87 1.7419762952218163 2 2944 8 2362 10 2564
832 0.69249157414159934 0.91406734699261372 9.3292601498111036 84 70 57 1.7615937725120914 2 3029 8 2378 6 2841 9 2649 5 2731 10 2621 3 2792
833 2.891889298419458 0.99537481008832129 7.8420275028754958 27 24 19 2.7804648234395546 2 3203 8 2402 11 2699
837 2.7261814375369178 0.98591732400316145 7.7772994074558461 24 20 14 1.3019143866591167 4 3001 11 2698
838 2.2224424838666383 1.3416219549411861 13.2052105349256 100 88 76 2.7345936345708526 2 3009 8 2423 5 2743 4 2860 10 2555
841 -1.771976253724018 0.66439031403839166 7.0883805572226803 16 15 11 0.86993240092856061 8 2455 6 2367 10 2669
843 0.74612440725468332 1.0012063721605768 9.3139119470605429 74 58 42 2.3035533828268155 2 3105 6 2956 5 2818 10 2672 8 2463
848 -0.63000272510642885 0.85485949621112178 8.1477600650179305 125 107 85 1.1256264043548929 6 2785 3 3139
849 0.53384368773001156 1.0478320473092944 9.157914542729344 107 88 71 0.26041609736027432 8 2548 6 3043
851 2.8453607004100077 1.0680501228514252 7.6971935835575316 46 34 20 1.4336463473989522 2 3294 6 3215 4 3063 1 1670 8 2552
853 -3.2741537213734553 0.61875093545182436 6.7722841163926883 41 37 28 1.1955134784041537 8 2562 4 2917
854 -3.0419932674766326 0.62418351378529779 6.7920605118880912 132 100 74 0.3249960316718748 2 3101 10 2703
862 -1.0289832235381253 0.92882964542834145 7.8372763561799728 46 41 37 1.6293905513648173 2 3210 8 2661 6 2924 10 2811 3 3365
866 -2.2856607515264669 0.76266038160077876 6.7265359448431168 146 137 128 0.29989230014794299 2 3222 8 2698
867 2.4123264445057053 1.6799667635319198 12.834269820033537 137 115 101 1.6361006436883756 2 3211 6 3433 10 2769
872 2.1849641023711945 1.6855975131890966 12.729075642997547 37 29 18 1.8330233276898775 2 3228 8 2729 6 3441 4 3055 5 2992 10 2795
878 -3.4018707730718325 0.75289574939206849 6.618988905755308 63 56 50 2.1811635098484161 2 3252 8 2788 11 2816
879 -0.48198341820106888 1.1629002011753176 8.3975673222548721 96 78 56 1.7064144875579537 8 2829 6 3300
880 -0.34646704079223811 1.1371866387606662 8.1578563898194254 156 136 103 0.86553061443223733 2 3348 8 2830 1 1668
883 0.50851581010044034 1.3837451073403078 9.5545016593323169 119 101 87 1.5110776270963882 8 2863 9 3041
885 0.3990797389957122 1.3246320768937943 9.0636998165582181 87 70 60 1.3501010820769825 2 3378 8 2874 9 3050 6 3431 10 2940
886 -2.962458339415996 0.84601666940887144 6.6643348116283603 42 33 24 1.229036773472832 2 3343 1 1631 3 3763
888 0.80381495681125992 1.4158108397662679 9.3703954285798599 56 44 32 1.9084477400218287 5 3193 1 1683 3 3475
889 0.88263789368308121 1.3814358389927544 9.0504809791496257 57 43 24 0.99150291592813411 8 2904 6 3509
890 0.66045447854120964 1.3973907768532248 9.2225752054936887 68 47 25 1.1351872853583871 8 2909 6 3508 4 3233 10 2976
894 2.444370486213602 1.34687605413161 7.9799952270932595 71 55 32 1.8881664709032728 2 3497 8 2936 6 3618 4 3297 5 3253 10 3067
896 -3.428495721452431 0.88129694791517454 6.6109306221965749 27 20 12 0.011557477429763079 8 2965 4 3244
899 2.1629087751643774 1.998751752319629 12.408155969797813 102 84 70 1.9005055537089508 8 2984 6 3758
901 0.3227573748122925 1.4683281292776762 9.2040089604615005 95 77 65 1.1513048304085776 8 2996 9 3146 3 3662
906 2.4419752110233257 1.4342957591358387 7.9649369466615445 89 72 50 2.2108704518323874 8 3051 6 3738
907 0.76447132750643931 1.5537103548558659 9.149959615424553 124 106 82 0.46093430606917851 2 3521 9 3206
909 0.5163836764509333 1.5763981808403347 9.1452211400510244 51 35 23 1.6417021181110107 6 3766 4 3354 5 3341 1 1760 3 3778
912 0.31795036187060249 1.5677831247094931 9.0886182586738062 63 47 34 2.3798960709633024 2 3550 8 3112 6 3764 5 3353
913 0.43906005211117666 1.5962772280025963 9.2546286665369593 66 53 37 0.47212133805625411 8 3114 6 3779
914 -1.692967208247979 1.1520554092282831 7.0387859982541094 73 55 41 0.58717064258520613 8 3119 4 3377
915 -3.299674180084049 0.99481980638615819 6.550389055798691 125 110 89 1.4574543093438941 2 3520 8 3125 10 3090
916 -2.9030403481126807 1.0299102623290992 6.62195939774778 6 3 1 1.4687975597340144 2 3534 8 3126
919 2.5403069447513156 1.5309009674319694 8.0132616210592875 86 76 66 1.4629162276470236 8 3161 6 3881
927 0.42975858081115303 1.7364343439347834 9.4111232484975407 71 56 43 0.70517822758031867 8 3238 6 3921
929 0.67154269287691548 1.7132638451824869 9.1334866975826241 94 74 56 0.51900427011851624 8 3247 6 3946
930 0.75867587118990909 1.7058414379577296 9.0685988278710337 96 87 72 2.5099044752951634 2 3631 8 3249 9 3343 6 3947 5 3440 1 1798 3 3966
931 0.87147367631846429 1.7245111401519084 9.1260919100308477 130 114 96 1.609384927997475 8 3250 6 3964 9 3348
935 2.4563226482418177 1.610249366062793 7.9576338276702936 110 93 74 0.67273689211451582 8 3284 6 4038
941 0.48482316361980449 1.7714182409093084 9.0889721062711555 30 20 10 0.88489662356353604 2 3691 3 4087
942 0.57218625110605348 1.7902405983358265 9.1110500089762638 53 41 28 1.7730912189275374 2 3692 8 3347 5 3528
943 -0.70443608203810315 1.5262024743938039 7.9262094862938595 184 175 158 1.8293376838807422 2 3705 8 3357 6 3976 3 4155
947 0.39080371943396963 1.8513059501431541 9.1574820104639212 92 76 63 1.3220214890376636 2 3742 4 3573 1 1823 8 3414
948 0.44625526023081075 1.8483977477952376 9.1648437839602899 79 66 50 1.5723712406491075 8 3415 9 3457 6 4132
949 2.542925254129035 1.7202401967551237 8.0551267272091298 153 149 138 1.8219886352028309 8 3419 6 4187
950 0.86156643766238561 1.9053671474324143 9.2979823616283621 184 156 134 1.1437623509757993 2 3754 8 3425 1 1825
952 -0.93954108239409884 1.5305894756780143 7.7271797330890495 30 32 19 2.147758540802954 2 3740 8 3431
954 0.69032788289933478 1.8675061925478049 9.1110682173113027 121 103 83 1.4580191999734133 2 3753 8 3434 3 4225
955 -2.3614100059640331 1.2663575109107068 6.6526018288100115 99 80 63 0.6742724875090621 8 3438 9 3481
956 -1.5402153953975934 1.3915956564476228 7.0526861007704262 75 56 41 0.033433806954155008 8 3448 9 3488
957 -2.3843222077526764 1.287487840900567 6.6422037948530459 91 75 62 1.5111573507699183 2 3767 6 3968 4 3612 5 3590 1 1814
960 -3.2207969596100057 1.2500934183348233 6.5835211939959359 60 50 38 1.7350957607599873 2 3766 10 3295 3 4378 11 3191
962 -0.85107686240948843 1.5971396783307945 7.7493405062710528 91 77 64 1.661177373742988 8 3500 4 3623 10 3317 3 4346
963 2.1717303467397739 2.6426513641565239 12.28421158426571 62 53 46 1.736816655978682 8 3505 6 4342 4 3642 5 3642
966 0.34813124974942916 1.9034694895926574 8.9886275997466321 51 39 27 1.9550614374952562 9 3539 5 3638 8 3516 4 3626
967 2.0297276355602265 2.6514631292154855 12.249094514259397 40 31 22 1.056458869801518 2 3813 8 3529
968 0.46753749473355055 1.9990369344913785 9.3036223718257141 110 96 80 0.73034104033479808 8 3548 6 4317
971 -3.4113661101452033 1.303776334984418 6.4830172063624429 48 40 29 0.67525467954771368 2 3855 8 3614
973 -0.56595539863325228 1.7366564781607832 7.8276631714012996 109 97 83 1.9601227649168067 2 3898 6 4387 3 4513
974 0.64293106613746442 2.12200613338669 9.3948953349419906 42 33 23 0.12554222968122619 8 3645 6 4439
975 0.68940357668965635 2.1158006836183114 9.3514813879537613 21 5 0 0.91336794756243034 8 3646 9 3635
976 0.81088477770026679 2.0692433410089208 9.1216478810774433 75 52 26 0.49646158942022767 8 3647 6 4441
977 2.0597659530172381 2.8347411236812956 12.408197449863588 57 47 37 1.3903070384379559 2 3892 8 3649 6 4503 5 3759
978 -0.87006161572189855 1.7108479307004263 7.7415957383468381 182 177 158 1.4419892654571036 2 3896 8 3659 5 3732 10 3419 1 1865 3 4531
979 0.32207537098655309 2.0288750768543498 8.9839537517394454 110 93 78 2.0599704654846112 2 3900 8 3664 6 4437 9 3634 4 3745 5 3753 1 1867 3 4567
981 -3.2252125356080796 1.352367611126462 6.5382873365756753 127 114 97 0.20451350105643379 2 3878 8 3670
984 -2.3917365651275713 1.4334636444322051 6.5866375727693942 105 88 72 1.6019348328954583 2 3929 4 3779 5 3774
985 0.86089418883852309 2.1952028584109557 9.322378163085201 90 72 48 1.7804608552828387 8 3736 6 4546 2 3961
986 -2.5324283283427578 1.4599605298666176 6.6267993368282037 124 107 87 1.3955775280259555 2 3960 8 3756 4 3804
989 0.95216152998800929 2.2168092232046619 9.1970326592215343 145 124 95 1.432150751380898 8 3792 9 3723
993 0.66372271368047253 2.209252571323908 8.9419740907840541 62 45 29 0.25221423266482429 8 3866 6 4680
994 0.72771129066987228 2.2421949661625673 8.9996365407762386 156 129 100 2.0701508576679117 2 4046 8 3873 6 4717
997 0.37973940722470867 2.2260597413938727 8.9559534726482148 93 76 60 2.3802489654974424 2 4043 8 3889 6 4714 5 3926 1 1946 3 4881
998 0.51237027316548156 2.245361493207541 9.0287070346095266 74 56 36 1.8881815293323445 2 4044 8 3890 6 4716 5 3927
1002 -0.42588930562434152 1.9479987588681416 7.9325912262270082 164 143 114 2.0244654503863981 2 4041 8 3898 6 4694
1004 -1.5890079385153895 1.6982064223680646 6.9864508013177664 100 85 69 1.3179147977382215 2 4066 8 3928
1009 0.52805167626423088 2.3590266288957142 9.0152763105661933 142 127 104 1.702527559907967 2 4154 8 4040 6 4875
1022 -0.39161484124242113 2.1800775960214676 7.9172892807262425 101 83 71 1.622305422498463 2 4290 8 4233
1023 -1.261722044044109 1.8838405736459358 6.9347301746661838 12 12 10 1.9199352864176089 2 4287 8 4240
1024 -3.2440785337951654 1.6336456662452037 6.2558608934792312 16 13 8 0.97284968075384237 2 4317 8 4249
1027 0.22683926391410741 2.3276954028663424 8.2110158485534974 17 10 8 2.0675782129499436 2 4351 8 4312
1028 -0.43703697840744987 2.1958818416771577 7.7390058782981326 63 51 36 0.11654999020544531 8 4343 6 5260
1029 -3.2509849324363969 1.6756187538981542 6.2405382882293097 65 66 67 0.64024297787564155 2 4371 8 4356
1030 -2.8922892019948634 1.6895723739366799 6.1374851257840604 74 70 59 0.42040938677005707 2 4406 8 4429
1035 -4.8204202222628547 -3.833731894601589 13.353266190693146 197 201 202 2.2844557863733668 2 355 8 2 5 350 10 245 1 265
1038 -2.4014291204190195 -3.4457812357434645 13.227407248666298 98 103 106 1.3538660560798088 2 492 8 19 9 352 5 382 10 355
1039 6.9797907735514073 -4.7032952637317793 22.136185898763614 117 121 130 0.77221953384733555 8 36 6 461
1040 -2.2454311545403534 -3.5537579278384746 13.846820306300293 222 222 224 1.1524060558532638 2 502 8 38
1041 7.5770377976249517 -4.793030642624581 22.937360589366438 191 201 210 2.6245650022777225 6 513 4 613
1043 6.9259417944254151 -4.5040800772947742 22.26855108911862 99 103 112 1.5922621475083094 2 778 6 533 4 661 9 502 5 437 10 478
1044 6.4445143178674442 -4.3270841502798856 21.673040368015698 173 185 197 1.5725748219448175 2 794 8 92
1046 6.6941780441208243 -4.4793464166297587 22.742898913189677 178 188 198 1.6781572897809582 2 803 6 578 4 691 9 535 5 474 10 490
1047 6.9496802108703823 -4.1433720884166849 22.609259590308451 97 100 105 0.74914674339868259 8 148 6 694
1048 6.7660822653292616 -4.1674203832733081 22.723250313591652 133 134 146 1.7469711355807569 2 889 6 693 5 530 9 586 4 753
1051 6.9427816357501122 -3.9057678607618382 22.430366139342951 114 115 119 1.3220451568489762 2 952 6 771 9 623 4 813
1052 6.234752334740012 -3.5621194821793227 21.004421599139825 147 154 162 0.26348800498951463 8 217 6 770
1053 5.6965432296208149 -2.9274802105490099 22.346984948833796 110 113 127 0.98822486629300332 2 1198 8 475 6 1132
1054 5.9679215162621269 -2.6067055080340942 23.214113223782451 116 120 132 2.0183814046770499 2 1312 5 975 4 1184 10 970 1 863
1055 5.9595582204477573 -2.1851992408382928 21.315705267333211 93 90 86 1.7773724830556215 2 1412 6 1382 5 1035 1 891
1056 5.9762490967577095 -2.0015605508537169 21.322682280997153 42 48 60 0.81636501734195333 8 652 6 1469
1057 6.0088889771398213 -1.9042906689615968 20.888221225841153 97 95 95 2.0109083713567837 2 1492 8 660 6 1488 4 1327 10 1114 1 916
1058 5.9592578701247536 -1.9765998621633603 21.645260216744433 95 95 93 1.3136965493777706 2 1491 8 679 6 1500 4 1326
1059 5.8692282410362262 -1.8145590299496233 21.443306941741088 136 133 128 1.0989378992621432 2 1539 6 1554 5 1154
1060 5.8219894903779261 -1.8312124377930399 22.52778586039085 112 113 118 0.23260807974263015 8 786 6 1611
1061 6.0475065250590623 -1.578392218214367 21.040479121106099 65 64 67 0.39439232733121998 8 794 6 1644
1062 6.1179964624464604 -1.4915191661694787 21.222258102320687 92 88 86 2.0073936747426258 2 1640 8 826
1063 6.0609078429466727 -1.3393184955552593 20.993709724820686 99 95 93 2.5013130769232825 2 1691 8 870 5 1279 1 1016
1064 5.8277371912030524 -1.4058994605030171 21.131781738588511 75 76 81 1.5481659051314971 2 1669 6 1710 10 1268
1065 6.0377870870445225 -1.076280704966565 20.933727426245948 119 113 108 1.4300545733936545 2 1780 8 984 6 1852 4 1565
1068 5.9862639699924305 -0.92927880153131237 20.804205637487414 133 123 113 1.910518846836498 2 1844 8 1038 4 1622 1 1100
1069 5.968479067709521 -0.79152059620373971 22.088456781068345 80 77 72 0.66734878569312983 8 1132 6 1997
1072 5.9724450272280523 -0.0031124591979865396 20.756909664013399 110 98 82 1.8125461152549569 2 2179 8 1437 6 2277 10 1746
1075 5.4875964947278932 0.33345505514037344 21.284467163800226 159 169 181 2.1489010942195943 2 2285 6 2420 1 1243
1076 5.7432225464760478 0.33221839989513019 21.333627099087757 62 55 47 2.1297698510692271 2 2286 8 1634 6 2421 5 1918 10 1848
1078 3.9943916519348641 0.73143201608690434 15.564523597516796 79 81 80 2.4033763482018151 2 2537 8 1888 6 2603 4 2377 10 2137 1 1338
1079 3.9965062045314048 0.78735369903514429 14.950737921667207 93 92 89 0.78929869867742986 2 2611 8 1934 6 2640
1080 3.8649500561283237 0.99071358043840896 15.177999412933271 184 195 199 1.3672673573304137 2 2710 8 2071 6 2796 10 2271
1081 4.2153182103641127 1.019889689684031 14.990411283862473 162 166 169 1.8095004236836254 8 2072 6 2832
1082 3.8301902094141975 1.0637563552472 15.046105831870177 186 189 194 0.34770258384030583 8 2129 6 2852
1083 2.9772775737344124 0.98064816415726652 13.676046385260271 68 58 49 1.4027196377565836 8 2139 6 2819
1084 4.2962443192628337 1.1971308544975408 15.027562175998566 185 195 197 1.5785037136632449 2 2825 8 2188 6 2942 4 2662 5 2506
1085 2.6505737020933302 0.83013611131230303 7.9097134102441311 40 25 15 1.8774056940348596 2 3073 8 2212 6 2781 4 2862 5 2700 1 1582 10 2649
1087 2.5986919259220138 0.84271102496018957 7.9386635460055226 48 30 16 0.70529697778950229 2 3082 4 2872 11 2550
1089 4.2308898277190128 1.2760874361460215 14.418921109062612 44 44 42 0.34264217319387502 2 2899 8 2256
1091 2.6648886409978241 1.1509135373166535 13.364258910745328 111 89 68 2.1636301585045019 2 2895 8 2280 6 2958 4 2737 5 2588 10 2456
1092 3.8326091741387351 1.3294037865895647 15.056687405717854 112 110 114 1.0161301689804159 2 2896 4 2738 5 2589 10 2435
1093 4.0282214021477349 1.3016132931967324 14.598884504514697 35 29 21 1.6965858431626235 2 2897 8 2284 5 2590 10 2457
1094 2.753966903579339 1.200725065908564 13.244742731095965 123 110 91 1.0650201581716607 2 2928 8 2316 6 3006 4 2771
1095 3.9236098046033021 1.3252831263564293 13.983355477325013 50 39 35 1.1598248128468391 2 2947 8 2318
1096 4.073221510482548 1.4276685701269236 14.882331681329795 133 103 75 0.038783009889206119 2 2946 8 2340
1097 2.8982536691341032 1.3668358273391612 13.746369879667613 162 153 136 0.94546407076453409 8 2392 6 3131
1098 3.6580985402882988 1.5352817747966334 14.935890185629169 45 28 15 2.0988278826367455 2 2999 8 2410 6 3221 4 2850 5 2717 10 2534
1102 2.5615754965805935 1.0093652792639998 7.966650665776366 16 13 6 1.1655111718873157 2 3213 8 2450 6 3081
1106 2.6188146138229329 1.089291880490644 7.8585329905269532 119 104 83 2.0500898600791544 2 3303 8 2579
1107 2.6821842187674578 1.08745064372331 7.8168291993355314 109 96 78 0.33808500670171782 8 2581 6 3240
1108 2.549835895903672 1.0892381107403122 7.8466837396266165 63 51 36 0.39514623143857452 8 2591 6 3239
1109 2.9091321376485162 1.6267208016076555 13.40250807036066 79 64 49 1.8328871829782281 2 3161 6 3352 4 2978 5 2881 10 2685
1110 3.4676545133710039 1.7134835294421908 14.210367378077207 39 31 23 0.24352441505799177 2 3147 8 2601
1111 2.5868339455985541 1.5592046623348357 12.977009481098353 68 56 42 1.3824562869514458 8 2611 4 2966
1112 3.9887293623508984 1.8728659219431316 14.885465109773524 142 123 103 1.3699565043044817 2 3166 8 2638 4 2994 5 2911 10 2709
1113 4.1982397983418993 1.8888541150081251 14.927720759625497 171 154 132 1.6798865023420397 2 3173 8 2639 4 2995 5 2913 10 2710
1115 2.765404475388034 1.1368348177345697 7.7915863352339541 70 58 42 1.8316807936469401 8 2647 6 3305
1116 2.9634397799317509 1.8296782225624564 13.491325373521661 134 123 105 1.9321478318188974 2 3238 8 2735 6 3503 5 3005 4 3075
1117 2.8789318134571724 1.8847781553444749 13.610634814536885 96 88 69 0.56186367842316076 8 2769 6 3535
1118 4.1975507343800542 2.04345168929841 14.322759860915108 18 9 3 1.5641501472719221 2 3278 8 2772 6 3592
1121 2.6963970951246412 1.2475218095176976 7.9718066800156304 70 57 38 1.3638493709932458 8 2776 6 3447
1122 3.1742309245899407 1.9187296073085947 13.625276188215304 40 28 12 1.8854519244221279 2 3263 8 2786 6 3555 4 3113 5 3048
1123 3.213002734328227 1.9172610868475961 13.491097340156879 129 116 100 1.3366982943356969 2 3276 8 2797
1124 3.9134286605666788 2.0929587451166558 14.654674921046118 46 39 29 0.02071672192297018 2 3277 8 2798
1126 2.8391657873272642 1.9434163674384175 13.440124690019202 102 90 74 1.7719276069806258 2 3313 8 2832
1127 4.1758188582129039 2.1478684804860118 14.316161234384818 100 83 61 1.8455822934369233 2 3338 8 2858 6 3667
1128 2.7942365758760452 1.3103044777324859 7.775991356620132 64 52 39 1.3738610851917805 8 2892 6 3584
1129 2.79506190982613 2.0181980484883364 13.262449116809046 143 128 107 1.3192671134313756 2 3366 8 2905 6 3675 5 3161 10 2916
1130 2.5550190299597118 1.3351464904307015 7.9222805341665783 151 136 121 0.82129912152446383 8 2912 6 3609
1131 2.5646932363689743 1.321654813313824 7.8529379053908581 128 112 96 1.9970427873676284 2 3485 8 2913 6 3597
1132 2.6499367311415942 1.3239546942797948 7.8372700680882463 82 67 48 1.9152353347170357 8 2915 6 3599
1133 2.5669676454514181 2.0256046923012616 12.907821513362324 74 61 44 1.8838792952828598 2 3399 8 2951 4 3247 5 3203
1134 3.1881879307928074 2.1629909240038288 13.685905590760504 105 97 86 2.3786195590920967 2 3400 8 2952 4 3248 10 2958
1136 2.6462461020217525 1.4033067354074751 7.8165409485263346 41 28 9 2.1370741695706905 2 3562 8 3019 6 3727 10 3121 3 3313 5 3312
1137 2.55339421722385 1.4241737081144843 7.9144023993880923 94 84 72 2.1972300273624179 2 3561 6 3739 4 3358 10 3120 8 3044
1138 2.8711194455649514 2.2636369918833057 13.321332025620626 148 133 114 1.8801875291574683 2 3483 8 3067 4 3318 10 3040
1140 2.5424451081236836 1.4740502715909019 7.9103058706392284 153 145 134 0.9050742938316747 2 3601 8 3093
1141 2.3883354241032158 2.2233049980855166 12.568460023273964 163 143 119 1.3262369007918253 8 3137 6 3903
1142 2.6502236134495214 1.4898006651288034 7.7923211550079499 51 38 22 0.53177179782071637 8 3139 6 3871
1143 2.6422366393057217 1.5066078038761426 7.8914397647602028 88 76 62 1.4635645748712207 2 3636 6 3870
1144 2.7395498896765851 2.396350427468378 13.224108683947939 129 116 99 1.7297591001094181 8 3178 6 3983
1145 2.7513135251724692 2.3451819944801588 12.899673096128398 152 137 118 2.1334921990795688 2 3568 6 3984 10 3102 8 3179
1146 2.7038254030128424 1.5073499488846587 7.7684222046853835 151 138 121 1.2941730761719459 2 3648 6 3895 8 3182
1147 2.7878364255040373 1.522578894169976 7.7262337692676146 70 61 52 1.3630803216661149 2 3675 8 3200 6 3941
1149 2.8122833097720772 2.5904574683987724 13.197527646677527 123 107 91 1.2662686470900339 2 3667 8 3315 6 4148
1150 2.8307747750469909 1.6616906191662786 8.0235188001440338 145 137 124 0.53204678839513864 2 3735 8 3317
1151 3.3715294827255247 2.7224517454606101 13.348312965591417 64 52 36 2.2640044154354557 2 3716 8 3380 5 3536
1152 2.6083683621964764 1.661595145009966 7.7659368308065915 148 143 137 2.4739896732440201 2 3771 8 3405 6 4172 11 3224
1153 2.5625618334315985 1.7318869348376051 7.8604881731704266 149 145 136 0.090942210815313437 2 3821 8 3475
1154 2.5436158763447962 2.752228834133108 12.637323494236336 29 17 5 1.5995668012218673 8 3532 6 4370
1155 2.6008880726120203 2.748321885747476 12.609917456296952 24 12 4 1.502506907690337 8 3533 6 4371
1156 2.7746814252037182 2.8010051947597869 12.850439688547434 61 51 40 0.82863865146715021 2 3814 8 3535
1157 2.6507616707166757 1.742385312242237 7.7314368136255274 184 181 174 1.449534457046564 8 3541 6 4320
1158 3.2280256143282902 3.0045599880981073 13.73406408832056 29 21 10 1.790808490279493 2 3815 8 3549 6 4395 5 3662 10 3329
1160 3.5926461715873486 3.057967367051392 13.558029812981232 78 61 45 0.29895546612056578 2 3840 8 3601
1161 2.4553106903225146 1.8254539511017365 7.8537349547533006 162 155 142 2.4877295667749793 8 3617 6 4414
1162 3.5626607741923659 2.9732734858380399 12.387384665555327 55 45 33 1.4819461642060938 2 3953 8 3739 4 3777 5 3832 10 3471
1163 2.6499845264294013 1.9190566055795606 7.7072109414237966 124 119 113 0.071085362035271174 8 3804 6 4614
1164 2.4491680144748571 1.9534136806091762 7.8591751352162875 23 28 32 2.0637668918656984 8 3810 6 4609
1166 2.7823101237899852 1.9174277007643363 7.6306698564900195 105 107 102 0.51583941071681139 8 3823 6 4636
1167 2.4539007773278745 2.036486573965909 7.8694163059940934 179 176 171 1.6372526962590668 2 4076 8 3921 6 4744
1168 2.6974847048925077 3.3801778508095919 12.967980037249626 32 24 19 1.1253077532837414 2 4119 8 3965
1169 2.5411728724818468 2.0248502042194501 7.5843379862000919 135 132 127 1.6711858688829115 8 4027 6 4843
1170 -2.6608760100285886 -3.3162038113365271 13.223694731491037 133 129 128 0.047781832275792302 8 79 9 433
1171 7.1500467247237687 -4.3062507695236194 22.309158668616128 85 88 95 1.7741138569446882 2 825 8 101 6 605 4 713 9 549 5 480
1181 2.9608476400841295 -0.44877449036647737 8.1691133594635232 20 23 28 1.6408983623473596 8 532 6 914
1186 3.0449312661075947 -0.090226515321608691 7.9359798443792924 146 132 119 1.4974205190219749 2 2257 6 1389 5 1622
1187 0.32159113609615775 -0.63232089009054682 9.6926561985918109 133 130 123 1.1443963854834864 2 1830 6 963 1 1067 3 718
1190 2.6227897872383159 0.4034185431208514 8.0488672818988611 144 119 99 1.3442270568772252 8 1589 6 2103
1191 2.3481116469780017 0.2574005144130096 13.964281693983855 135 134 139 0.49866709472745796 8 1643 6 2243
1192 -2.9947585643884524 0.048425048875789897 6.7480625566027994 146 143 136 1.1708130943289181 2 2456 4 2202 1 1295
1193 -2.4513959137086809 0.13658514791332269 6.8428638732463503 34 23 17 0.28037458194270998 8 1795 6 1163
1200 2.5768903710183442 0.76799005500044726 8.0307085170412726 142 130 114 0.97618034775623985 8 2131 6 2656
1207 2.5302988290425588 1.358943284433201 13.022752267621975 64 51 35 1.2743374138891057 8 2439 6 3176
1208 -2.570209157202922 0.64945113462272819 6.7504797402088421 37 44 28 1.2722391584566712 2 3123 4 2931 10 2737 3 3434 9 2796 5 2868
1211 -1.5312858747517102 0.9872797040094452 7.0371844258389054 34 22 13 0.94345222926643513 8 2897 6 3139
1213 2.3162680611491604 1.9977777555404104 12.435352431586239 134 118 99 1.6018545002029063 2 3426 8 2985 6 3732 4 3266 5 3237 10 2985 1 1699
1216 -0.96087112966390187 1.2221304482983091 7.7428070617701197 53 44 32 1.7752620314718481 6 3492 1 1726 2 3494 3 3771 9 3168
1220 -3.1054009133785763 0.98939029524219813 6.6277147784103869 127 111 96 0.43331013689374565 8 3085 5 3297
1224 3.9589768590600953 2.9413596855211064 14.254497788223494 82 66 50 1.258584143262155 2 3717 8 3403
1228 3.374473689824343 2.9205672511063181 13.369509519559331 63 53 43 1.7397658415404058 2 3805 4 3647 5 3653 10 3340
1229 2.5813575812995273 1.9024366417801348 7.8693505579882315 144 137 127 0.89584203851387012 8 3723 6 4532
1230 -2.3955905489359774 1.4996736774053263 6.6319468818903777 117 100 82 0.14827812228140763 2 3984 4 3838
1231 2.5582357136415528 1.9344122555967644 7.7876478531747093 113 109 100 1.101520283227859 2 3998 6 4612
1232 -1.9438200441601852 1.5522296495449588 6.7151350562036178 120 103 87 1.5359022042251995 8 3832 4 3858
1233 -0.48734303187752032 1.9124164130287244 7.9835829713438367 136 111 81 0.63844598316250978 8 3835 6 4620
1235 -0.3657026444212324 1.9277116365496971 7.7914840932853924 43 25 10 0.43120636782720811 8 3908 6 4706
1238 -1.1184876741086514 1.889812969181454 7.2079264097240401 41 36 30 2.3678742123157863 2 4200 8 4124
1240 -0.22503823716581367 2.1354248868703269 7.7554988250084351 92 79 70 0.98583235790086476 8 4227 6 5117
1244 -0.88113165634813917 -1.305692776159024 8.5685017732710236 141 144 149 0.79612220671919731 2 1262 6 48
1246 7.4386171066897937 -7.2504443291929661 23.830321804901946 173 191 205 1.3340631774102434 2 260 6 69 10 139
1247 7.3452055239500478 -6.8647384665840949 23.529222026493368 112 128 143 1.6712254695711566 2 302 6 112 9 61
1249 7.3394567113564735 -6.7008926460051752 23.468526503991953 154 172 186 0.46522237761191559 2 331 6 135 10 183
1250 -1.0338486144458869 -1.0973647742356978 8.4508919971829588 90 91 93 1.4732059810430127 2 1417 6 139
1251 7.9565487509360233 -7.0003420779515722 24.405185960690229 178 196 210 1.2287088371797825 6 144 5 75
1252 7.4412980253132837 -6.582638775533165 23.756227425446774 128 142 153 2.4950582447270424 2 373 6 168 4 250 10 203
1254 7.2218103595579297 -5.9447355414870842 23.009462138023871 107 114 122 1.2922251609290427 2 452 4 328 5 303
1255 7.0726679196691524 -5.5825444707324001 23.206426419533543 127 133 145 1.6142605362925182 2 529 6 314 5 338 10 301 9 266
1256 7.4937434777479313 -5.5463145653046642 23.083551627946054 121 122 128 1.778369901855833 2 539 6 315 9 261 5 336 10 308
1257 5.0139629176941769 -4.1867227319808951 19.183618507909099 184 198 211 1.4661036829628276 2 706 6 349
1259 6.9255185404789223 -5.2318961978778855 23.065533896059979 113 122 131 1.8634867271679496 2 628 5 370 9 330 4 506 10 361
1260 7.5801745971193135 -5.1985820063540045 22.897357754390427 125 128 134 2.0130707025196686 2 629 6 393 4 507 9 308 5 365 10 372
1261 2.7926972681594986 -0.89438202226359342 8.3212239578534941 94 105 126 1.9308237257178327 2 1586 6 403
1264 6.5368036378561412 -4.6533839805551214 21.904679018298431 125 129 138 0.59019611708417297 2 727 6 454
1267 0.59745612808658144 -1.1567200555997736 10.057577665524052 139 146 154 0.56843408665736728 6 499 4 1214
1273 6.8068742626005019 -4.3427025100386372 22.736294855212925 193 203 212 1.3405181323359441 2 843 6 622 5 500
1277 7.4640381608551643 -4.1202076586796368 22.491324976019357 138 135 139 1.589723508539894 2 902 6 696 4 754 5 519
1278 3.1521999827091101 -0.58205042097625947 8.0800428683520202 52 54 55 2.1527793401592699 2 1819 6 703 4 1488 9 1303
1279 3.3290952569829027 -0.54565298094781423 7.9519256426617426 89 70 55 1.6577117541925805 2 1860 6 716 4 1512 9 1319 11 1384
1280 -0.34202543269223346 -0.61391049475966109 8.8802176396020158 122 122 114 0.51539985921466702 2 1829 6 734
