# 3D point list with one line of data per point:
#   POINT3D_ID, X, Y, Z, R, G, B, ERROR, TRACK[] as (IMAGE_ID, POINT2D_IDX)
# Number of points: 447, mean track length: 2.293560606060606
414 -2.1453331768119055 4.1361568560151749 18.089535314984332 227 134 104 3.6791291192179112 1 2829 3 1011
415 -3.2062178781498933 4.3877401933482556 18.595170810134039 224 135 108 2.1073621704852843 2 2132 1 2860
416 3.4990156557706213 4.9427135463361322 20.183903369636038 162 81 65 0.49120386681599848 1 2524 5 2384
417 -0.063842161437290074 4.3211080657270555 18.417448237780292 212 113 87 0.062431844584744767 1 2764 4 978
418 1.7812059280314101 4.5497392508164936 19.02108362670274 159 78 64 2.1871615631430217 2 2141 1 2646 4 1005
419 0.59006039117671982 4.4594314484927535 18.297643814588074 190 98 79 1.9396895333791948 1 2772 3 1154 4 994
421 -0.52322022721403061 4.6265097877210071 18.928532218905488 209 115 91 0.56360976798757612 2 2173 1 2780
422 3.1449340629172 4.4730459780003127 19.140737226782132 150 74 61 0.9601008817091008 1 2549 4 984
424 -0.18425833432774602 4.6164065948026503 18.321641398091316 223 125 99 2.1368816079671755 2 2196 1 2828
427 -0.71462239350497692 4.7356930032812379 18.438931481506909 204 107 87 2.567458931902646 2 2221 1 2848
429 0.97570857675179878 5.0201055225335409 18.85901072523821 175 96 79 1.888104044088559 2 2259 1 2799 4 1103
430 3.3388566744770127 5.2830333206620406 19.451174278629782 160 81 69 2.3487738001614966 2 2280 1 2687
432 1.8535448605199583 5.1151229956104931 18.48088143117425 163 91 70 0.50364084806165976 2 2303 1 2820
434 1.686078411787687 5.1963113365015046 18.657992022055907 168 95 81 1.9278137314163772 2 2309 1 2824
435 0.19863344502824515 5.1798847876253937 18.624669792417244 181 92 76 1.5044290523772523 2 2314 1 2879 3 1247 4 1142
436 0.87755460864126811 5.2409116957643223 18.871867652862953 165 87 72 2.3501236620180608 2 2321 1 2834 4 1144
437 3.4428585214367176 5.5194741670130805 19.534573417138457 167 86 70 3.348237971038118 2 2330 1 2724
440 3.0536841713643526 5.417967436018583 19.01399748071729 163 85 68 1.1797157658337074 2 2343 1 2777
441 1.746830892642776 5.3891922431723884 18.79015621829291 153 85 68 0.20374304923342362 2 2349 1 2840
443 1.4768487467682299 5.4528919105772466 18.634861053010813 155 85 66 2.5074507270921451 2 2369 1 2880
444 1.6881619221761821 5.5709110162428592 18.78494315096907 157 86 76 2.2752339470957832 2 2381 1 2868
445 -2.6080926147712673 -3.9826634890222827 20.116588592178566 130 72 60 1.2621259565896918 1 861 2 13 5 223
446 -1.7392080488545072 -3.6218152117134279 20.196999007581351 199 138 127 0.0059693404669590843 1 891 5 397
447 -1.4809556873013248 -3.6621642038142839 19.998063103623974 0 0 0 1.9849934573360617 1 878 2 74
450 -2.5060451619185273 -2.4674676797825241 19.993864665503359 99 48 42 1.6239639150834044 1 1218 5 474
451 -2.8608836663668988 -2.106822114254614 20.09634665960623 0 0 0 2.8057644723488622 1 1332 2 458
452 -2.9632866302523411 -1.9441710776733601 20.327015183062297 135 88 80 1.8052957763829989 2 499 5 501
453 -3.3407369139600482 -1.7429185162995251 20.696126180689905 106 54 42 1.5992822976266128 2 560 5 503 3 0
454 -3.1176714622258781 -1.7611167000824606 20.156519320197553 109 58 51 1.6155137185493693 1 1432 5 510
455 -3.8265964141582138 -1.1034210474837323 19.756890221203257 120 65 54 0.80537832761323314 2 694 5 514 3 64
456 -2.8889077045990299 -1.7315947130778802 20.2445711719038 121 73 62 1.2380022913842337 1 1428 2 536 5 542
457 -3.0048366097959942 -1.4247902661632681 19.674787654486128 115 70 53 0.95106527172903133 2 610 4 16
458 -2.8752718983793883 -1.5244946191536042 19.753884758236797 106 57 44 0.39875175931931622 2 587 5 565
459 -2.8516318161845851 -1.641621406071724 20.145745165399884 110 62 48 0.45690429736566207 1 1445 5 566 3 10
460 -2.7626765083629676 -1.8165849532049365 20.980322460163176 118 68 57 0.12432595742084625 5 575 3 25
461 -3.5196315327198557 -1.0650432062358484 20.05909183321193 121 69 57 2.1663008012365998 1 1606 5 580
462 -2.514005923544067 -1.8419635990848129 20.274610366763323 118 70 57 1.0473777045131163 1 1376 5 581
463 -4.0215809776494194 -0.5953569108414003 20.572543608194866 116 62 51 0.70734452370221235 2 849 5 608
465 -1.9649460236306802 -1.8889609038252246 20.054049088226172 162 107 98 1.4300224695027119 2 501 5 622
468 -1.4451304917241172 -2.1150419062173533 20.399468045862818 0 0 0 1.396814471120333 1 1225 2 459
469 -4.7307992785263311 0.21103383743626908 19.460160540157705 0 0 0 1.6583948693023214 1 1963 2 1033
470 -2.5564865473308296 -0.93072593123757141 19.476501663494133 154 91 77 2.012072564949694 2 738 3 97
471 -3.4029712355275183 -0.52099808753054022 20.574469065155739 120 66 48 2.1002618346397024 2 868 5 684 3 209
474 -1.523944108866623 -1.5197993270587185 20.322385885276116 148 80 64 1.6691251092387656 2 607 5 717
476 -3.8108934234576677 0.18520979681191477 20.528669676565713 91 42 33 0.60783062840013957 2 1039 5 724
477 -3.6581489697946745 0.30632264090314532 19.658047343106123 94 44 40 0.52281573109201451 1 1934 5 745
478 -3.4520489355797115 0.060410417427825817 20.905228860366606 105 58 46 1.550163080351004 2 1015 5 755
480 -1.4388777171019975 -1.1620855030168786 20.350324815758903 168 100 85 1.4129226260208212 2 695 3 128 4 61
481 -3.9251778604068037 0.84167019039443602 19.165053238657638 135 65 50 1.9362965656640947 1 2072 5 776
482 -3.8785849902267038 0.51159587895083791 21.031760261352584 169 116 101 0.52031258602859798 2 1123 5 778
483 -3.5220949645632849 0.62499609213011875 19.308623418644174 142 90 76 0.43757797089042605 1 1994 5 798
484 -3.6741096922973266 0.89198174519900686 17.960554785226758 146 77 64 0.18162691251486868 2 1235 4 364
485 -3.4321389750513496 0.7138762925376656 19.498898933084099 100 47 39 0.51077040056707546 1 1995 5 836
486 0.38349676995656362 -2.2332782080473086 21.165892553454345 185 108 94 0.29920223842491456 2 455 3 42
487 -1.6358395933700669 -0.7557515492695015 21.003485105867078 171 100 78 0.83330094182354097 2 805 5 848 3 238
488 -3.7374091535129939 0.946464458577575 20.342330893712688 154 84 69 0.82732551373052177 2 1247 5 857
489 -2.2573911369765511 -0.20206081227993944 20.514368882781582 150 78 59 0.99775962977767318 5 859 3 308
491 2.6026754871783568 -3.5521935326062417 20.354463822965418 189 108 92 0.44268728021287906 2 117 5 914
492 -3.1278053883068759 0.92630320618823481 19.149154864602107 155 92 80 1.0319499709849609 2 1238 5 916 3 438
494 -2.4722899074954019 0.72974107668799937 19.894088934043374 116 67 56 0.097736257050245801 3 452 5 981
495 0.015816241052258144 -1.2204556795187802 20.150251388880211 145 77 69 0.3655354839932099 2 662 3 147
496 -0.7192765686379895 -0.77246448571916537 21.013736112795478 143 80 62 0.6617449469518869 3 260 5 970
497 -2.945919349765286 0.97887870402493371 19.299391984420453 142 72 64 1.456525577225561 1 2042 2 1248 5 954
499 -1.5712237660240602 0.019414416896667841 19.430376062705562 161 89 71 1.6713259370670968 2 980 5 968 3 325 4 222
501 -3.1967763587395974 1.4692409729007898 18.669072293540832 168 86 66 0.64918520882575881 1 2223 5 993
502 -1.0064665705161226 -0.36603363544906931 20.348489014420736 154 82 65 0.68639379883741702 2 891 5 994 3 305
505 -0.79913885361813375 -0.10109345376414182 17.368006046582288 153 84 64 2.4733911566679896 2 928 5 1014
506 -2.4756099534678024 1.0012317003057181 19.325608305174477 102 50 39 1.6818098791293981 1 2021 5 1031
507 -2.4407327133592531 1.0630994081729006 19.309339629649902 190 97 78 1.5578458548537286 1 2034 2 1273 5 1055 3 496
509 -1.8739485491479309 0.8380364524071392 19.903427895176009 140 76 64 1.4221010661790841 2 1211 5 1098
512 -1.1528350465597448 0.72523851189643507 19.08563381989757 155 79 61 1.1933211694440053 2 1163 3 468
514 -2.7892922090087069 1.8097926443959003 17.912035386531507 190 96 76 1.8632731415518189 2 1477 5 1145 4 499
515 -1.2368444342770686 0.78495428973962833 19.114636782165892 177 94 83 2.292758715190383 2 1180 3 484
516 -2.3984683131690452 1.6471741175652841 18.075480923702195 213 110 89 0.24504898841992628 5 1159 4 481
519 0.18572756006860772 -0.19045561933264393 20.055226646075845 204 108 81 0.45977730309036857 1 1616 5 1194
522 -2.0191354508024641 1.8340726793130211 18.220948382317239 226 122 101 0.23078589184673012 2 1485 3 601
527 1.0017334993968416 -0.24130919121057579 19.894134310845871 185 100 81 0.78030474012919804 2 913 3 365
528 3.0682893077148417 -1.7678055122749021 20.25214248318516 151 76 60 2.4781894136471951 2 525 5 1273
530 3.3791217707225285 -1.938040916247161 20.713567545867761 147 72 59 2.2662411166598893 2 503 3 126
533 2.0686389691159262 -0.86258269447935298 19.940765402566647 204 123 105 2.8392789626789199 2 762 5 1299 3 268
534 1.758948742302151 -0.49231702336960032 19.902794531100906 194 103 82 1.6741115206973154 2 859 3 331
536 -2.5476043552626342 2.6132025066969016 18.320802524718342 220 117 93 0.18175175034317054 2 1693 3 719
537 -1.9455115616383889 2.2862105314747563 19.484053037281239 206 106 82 2.5238846651064613 2 1573 5 1328
538 3.1312824696834998 -1.5932781345396658 20.118989495549648 162 76 61 1.3141009146406297 1 1103 5 1329
540 -2.6977245342780782 3.020890345447667 18.258457570553691 189 95 76 2.4181305637268098 1 2611 5 1339
541 -2.0064731638508251 2.5617919887987854 18.449082586071764 214 115 87 1.4612556372309291 1 2447 2 1678
544 3.2785532119131089 -1.3541126728141817 20.618820461175989 165 83 64 0.47647559377512971 2 639 5 1374 3 241
545 2.8714594749762514 -1.018229384112161 20.598497068129834 178 88 71 1.9763031511793079 5 1378 3 288
546 -3.180095766110139 3.693152366130247 20.792261902963478 202 113 88 0.92743874341540444 2 1863 5 1381
547 2.373676028570169 -0.58090484457313252 19.781171259475979 180 85 67 1.0170280086823191 2 829 5 1387
548 0.61627508672473574 0.84723616520334222 18.52518410498373 193 101 80 2.1875715527126269 2 1215 5 1394
549 0.99950370249135678 0.81221207384225347 19.089739928282736 202 107 87 1.5583643573955666 2 1186 3 540
550 1.3761295956362252 0.27270902971092487 19.870773833015296 197 109 87 0.62241944008230865 1 1672 5 1400
551 2.1766857984993391 -0.3069251104023889 18.653289783915341 180 90 66 2.3618140574057547 2 881 5 1406
552 3.125045441505566 -0.87022632424106361 20.806417765371521 181 91 71 1.4402435028576626 2 764 4 72
553 0.43129693373219652 1.1882215997069858 19.607547807000088 208 108 86 0.48316581230387601 2 1297 3 594
554 4.088251007412703 -1.6067294553662319 21.164732659205544 163 77 63 1.9990407555793777 2 583 5 1436
555 2.1734175834201603 -0.11426590304352545 19.745342833400194 184 89 70 2.0987965430773294 2 941 5 1437 3 413
559 1.8518643499225422 0.55004561349293968 19.7335600843798 190 94 72 1.9741583617948681 2 1111 3 541 4 300
560 2.4949971331028977 -0.13179228479958857 20.163677609926705 178 87 69 1.5782460301107188 2 942 5 1463 3 447 4 179
562 1.4615604778113569 0.79127415087471209 19.250320810897797 199 107 83 1.1041222449079615 2 1181 4 330
565 -3.0436138834327995 4.2795261937659985 21.477759677003391 207 114 93 2.534598559546926 2 1961 5 1482
566 3.0438181247448366 -0.44423474038590705 20.074430079659489 185 93 71 0.12731922703634713 1 1427 5 1489
568 -3.5513793211354168 4.1499416350417597 18.426774310247072 0 0 0 0.23635364566918632 1 2855 2 2084
570 3.7874564829587913 -0.9194904419040244 20.635634269775284 177 84 63 1.4742249563949685 2 754 3 340
571 4.3502883367410696 -1.2083273580716265 20.123242591677421 167 84 66 0.56256684080937247 2 657 3 277
574 1.4078755701274708 1.208387458492344 19.20925874185836 201 103 79 1.0145613163337779 2 1304 4 399
575 0.098498584623654309 2.210269140553192 19.2705805487265 208 105 83 1.807468574409592 5 1548 3 747
576 3.7265493865281587 -0.4590973659968664 20.544978355467702 179 86 68 2.3265740609123076 1 1364 5 1551 4 122
578 3.133233900085874 -0.026546404557997439 20.358463274333452 186 92 71 2.2238780076917726 2 969 5 1554 3 488 4 201 5 1549
579 -0.29861848620785963 2.5263041540758087 18.542756874444979 208 98 71 0.95832385274528598 2 1658 5 1558 4 621
581 3.2650084887100541 0.097440549011899191 20.603741105973068 184 90 67 2.4007254996706582 2 1014 5 1565 4 229
583 0.24045422214472317 2.3318480681923748 18.862432909231359 212 112 84 1.2361545286687203 5 1583 4 587
584 2.5898274659800062 0.75767012347108109 20.056674747328366 178 83 67 1.171419466765065 3 592 5 1607 4 336
586 -0.33882179696891118 2.798642528892441 18.097915806108766 223 116 87 1.7728907560044431 2 1734 4 659 5 1594
587 -0.17401681053098739 2.7092579878351581 18.574259111269658 215 106 79 2.2791286926843934 2 1701 5 1595 4 655 4 660
588 2.9630068306655044 0.45361552138914785 20.37275302824861 190 96 73 1.2635017782608431 2 1096 5 1596 4 301
590 2.4300127788230301 0.74814975700433894 18.63352284512461 180 85 66 1.9371524934436344 2 1175 5 1602
593 2.7456122765469502 0.6978747305747548 19.985879327739397 179 83 66 2.5895407143328395 2 1151 5 1614 3 584 3 585 4 333
594 -0.05642101771032991 2.731610416918083 18.757777779549642 218 115 87 2.5726134331492307 2 1697 5 1623
596 0.25340086543321971 2.5504010861174891 18.727800332507304 215 115 85 1.4508593511723749 2 1652 5 1627 3 796
597 2.7090035448588341 0.77746548767958434 19.403473700477893 179 76 61 1.9888750978651184 2 1187 5 1632
598 0.96476311895838318 2.2145054524040932 19.345078267132362 196 95 75 1.6811872824375225 2 1561 5 1642 3 772
599 1.99655034545837 1.4425279216287066 19.692971267850606 190 93 78 1.9136775595805853 1 1914 5 1644 3 672 4 444
600 4.4848804162856561 -0.25039201607521655 20.76018867501843 164 74 55 0.1059738834732051 5 1673 4 165
601 -0.033033834493928514 3.0162616725404257 18.612201519014093 212 111 84 2.2278004014111756 2 1772 5 1676 4 724
602 1.1480694204261088 2.2922678180980571 19.677111955887895 203 105 82 1.1846219345945141 1 2097 5 1677
603 2.6414094296678559 1.2420311152946313 19.726014687019312 193 100 75 2.0538643781723369 2 1306 3 657 4 418
604 3.3767848662332725 0.61725211998119045 19.935348946811995 193 97 73 2.2704066753094554 2 1138 5 1679 3 586 4 312
605 1.3849442235028468 2.0465393533276308 19.031762600683024 190 94 77 0.68287391218654947 2 1522 5 1682
606 4.4302900038220967 -0.13003662952571163 20.687535804674276 169 76 56 0.99287308409744013 2 951 5 1685
608 0.66499489130464728 2.6504099928163902 18.951243003242539 200 97 75 0.51804846769193513 5 1695 4 645
610 3.8588175131213944 0.40732107550157692 20.339591031250936 184 83 62 1.9312004864990773 2 1068 5 1710 3 583 4 276
611 2.420776173158472 1.5555606897519179 19.55333998979081 191 95 74 1.7661989505625355 2 1374 3 700
612 1.8603355227551996 1.8248767346855652 18.910510313102662 189 92 69 2.2560983695106249 2 1455 5 1730
613 0.69877409189838957 2.7944264130824918 18.626751285155866 199 96 74 1.3024489922872573 2 1715 5 1742 4 667
615 2.5379445338920759 1.642954609020673 19.621523300644348 183 83 64 1.2208160071464327 2 1406 3 722 1 1932
616 0.82501227168385616 2.9555831256143863 19.417341552845699 195 92 70 0.57557393854215566 2 1732 3 900
617 3.1906930478715601 1.0023909461239759 18.927643199586299 194 100 77 0.48170237507089575 2 1244 5 1766
618 2.4667967624733347 1.7378284084870008 19.576284807717137 185 88 68 1.7545920979734591 5 1774 3 740 2 1425 4 489
619 4.4369770740508807 0.26615003986186458 20.311915465649072 168 73 55 2.1403257798476703 1 1507 5 1775 3 563 4 240
620 1.5197284869722123 2.4294470401133141 19.591813312445247 187 89 72 2.0301724463494661 2 1606 3 830 4 612
621 3.5383275274560377 0.81956370496967101 20.011937248338626 186 88 64 1.9739751722720449 2 1193 3 613 5 1746 4 348
622 3.9460218058541314 0.54695463554532497 20.722616471060384 196 98 73 1.3301652350773399 2 1112 4 320
623 2.7366928164422686 1.618754722191176 19.939896867119181 190 96 73 0.25211985949607074 5 1788 3 729
624 0.57171631981318094 2.9625751426503939 18.23782187709795 201 97 74 0.83575937135550782 2 1767 4 692
627 3.2772966572394426 1.2011763629849135 19.633786900876164 193 101 77 0.4914080824510727 2 1299 5 1797
628 -1.4673717340390646 5.354894979639834 22.488242835739484 211 108 87 1.9984714803518135 2 2154 5 1805
629 1.7373057322414858 2.3571794407633107 19.26443436484541 199 100 82 2.0830724002433891 2 1584 5 1807
631 0.94739022620047686 2.9835137997448085 18.95771941633452 199 100 76 2.0203599609648806 2 1746 5 1825 4 717
632 2.6761099223982505 1.7979657666783395 19.906452692271131 185 92 70 1.7404860163660347 1 1937 5 1827 3 751 4 498
634 2.5937573867670771 2.0334473070470036 20.013218030942138 194 106 84 1.6211240171643591 2 1502 4 533 3 799
636 1.3527846626137123 2.840512943581432 19.182751216769354 205 110 87 1.8838343204562382 2 1708 3 895
637 2.3235248251872318 2.2607463731165462 19.718143257947233 197 104 76 0.89042229612134416 2 1564 3 824
638 5.3993514234657702 0.013015795174458214 21.315158559525237 155 69 48 1.1494484295956215 2 992 5 1850 4 218
639 3.0699102960476141 1.6360983136934342 19.887505855028568 185 89 65 0.1631441935628189 5 1856 3 742
642 1.8918153729326814 2.6223166972380119 19.450980242056833 201 102 81 0.040304842503461398 5 1882 4 634
644 1.0640340168565754 3.3415863185304024 19.203092023265704 195 98 79 0.97498068515824676 2 1835 4 803
646 0.80633161541411569 3.5049700930635752 18.960552851192293 188 92 72 0.68879042845901728 5 1902 3 992
648 1.7875896657292241 2.7984200334490414 19.031048006865539 198 101 82 1.6693448932108277 2 1704 5 1908 3 905 4 666
649 -1.3475653121757249 6.0533273170983408 23.580803220229207 209 110 89 0.73258911467498278 2 2244 5 1912
650 -2.3089682379959595 6.787553336266634 23.170383576072549 239 139 107 0.48320076761896569 2 2399 5 1920
651 3.0706427433627885 1.9155662584940003 19.017328118682002 189 90 69 1.1171683710390619 2 1491 5 1937
652 5.3948093540934785 0.40420554939305675 20.886508558698662 161 75 57 0.39374179145254118 2 1076 5 1941 4 285
653 1.7997091315683369 2.9034103006014522 19.046012822754509 196 99 79 1.4964859265443684 2 1724 5 1943
654 3.1819111613438738 1.9942869751924548 19.799048801333374 194 99 76 1.5988476411249897 1 1948 5 1944 3 806 2 1497
655 -0.11906979589198444 4.0946591316221808 18.190316836521514 198 105 85 0.42392330288735774 2 2074 3 1058
656 2.3438959512634412 2.5530247480901682 19.250787441506031 194 96 72 0.26314981772380908 2 1639 3 874
657 2.4861018532808004 2.507754632224708 19.49150856115762 189 90 71 0.30706326969708408 5 1953 4 614
658 5.679024611592844 0.028671770304121047 20.874564804458835 150 71 57 0.77433388987711782 2 984 3 568
659 2.4019638427826142 2.5529024631203465 19.285956908284604 193 94 73 0.98982853876800736 5 1956 3 875 4 618
660 2.6126934128160997 2.4532171350325807 19.639210258169889 197 98 79 1.8554795926017784 1 2070 5 1957 3 864
663 1.6851403975794266 3.1729029103320281 19.060775537386263 177 87 67 2.1753854505342023 2 1791 5 1972 3 974 4 756
664 1.5067434119304903 3.2390426512694939 19.095589721068354 175 83 68 0.276993315809414 2 1812 3 969
665 2.3996267379801011 2.7071289480049381 19.636670254233092 192 98 74 0.58385215958513659 5 1976 3 907 4 656
666 2.7616100909546217 2.4592701426034531 19.776653769626925 187 89 67 0.61806788531305445 5 1977 3 881 4 609
667 -0.93572731629076378 5.9470969043342103 22.282053029401716 219 119 95 0.068849750816748434 2 2288 5 1989
669 3.7751100149709189 1.7953834610799053 19.99446636983625 180 85 63 1.4292816872827994 5 1991 3 792 4 492
670 1.862654176552232 3.1057723393103895 19.349834553185239 186 93 70 1.9772033875058572 3 955 4 737 4 757
672 2.9974126960666969 2.3705662131435385 19.367705646035525 194 97 77 1.4856512346896986 2 1587 5 2009 3 865 4 576
674 5.3413397708109303 0.91137772111081505 20.563624204353914 149 69 53 0.90377413444170229 2 1205 5 2030
675 -0.84874425294773748 6.3981203303027891 23.266123391240196 211 111 88 0.72434653904569624 2 2320 5 2032
676 4.8314390569300221 1.3696021344293829 20.557628877381774 161 76 61 0.37021074183557545 2 1329 3 754
677 2.5563765821656164 3.0570678569610541 19.488937110471632 185 90 70 1.4018271578723973 2 1756 5 2051 3 976 4 728
678 -0.49682494293847823 6.0224699571198981 21.847715334822858 214 113 93 0.81367239104835709 2 2313 5 2056
679 3.5815958590999055 2.2777596949516425 19.479452849786068 175 79 64 0.80808415438867487 2 1565 5 2057
680 0.012172779452060453 4.5625797723218549 18.329276106667432 215 114 91 0.087413853479456807 2 2187 3 1150
681 2.0257013476458599 3.4981552208815945 19.164016662775268 182 91 73 2.8523195138648507 2 1856 3 1036
682 -0.82319942967307635 6.5895153646194657 22.914619016647748 205 104 86 2.5221299240596422 2 2365 5 2062
683 3.2856364256883115 2.669587037638141 19.691240328961886 171 81 65 0.68900813053062915 2 1661 5 2063
685 2.5615090597871997 3.175435739262956 19.011790640037436 187 92 74 0.80324559613174296 5 2074 3 989 2 1804 4 744
686 1.7081241657287975 3.7200126760125722 19.237175136143609 174 88 69 1.7543854292337935 2 1917 3 1053 4 881
687 0.36863364825030814 5.4965492043105257 21.26932650933152 208 109 89 1.0075197963917428 2 2238 5 2086
688 -0.6766038662894408 6.8122630465011031 23.125365053983639 204 105 88 1.2572537916829458 2 2405 5 2089
689 2.0515536360833488 3.6258467606875198 18.706000101336492 183 90 76 1.5049676301679424 2 1909 3 1054
690 4.6009279608289928 2.0928451313024663 19.708557709903076 173 83 63 0.15211736965437017 1 1928 4 525
692 -0.87526551226073102 7.69720566671083 24.396016452254703 202 103 84 1.0593824837820258 2 2484 5 2129
693 2.9541617972931413 3.3334076336069098 19.16348472662467 182 89 73 1.5578328109333472 2 1830 5 2131 4 779
694 4.6101451534757789 2.2847430485777234 20.243981971386606 177 86 67 2.0342743794530702 2 1548 5 2133 4 564
696 6.1470997705882287 1.018345417658614 20.33804110376909 160 78 62 1.2508162688866848 3 731 4 361
697 -0.15805723901514443 6.9540604095743568 22.961204549669066 187 96 79 2.5749286247730625 2 2426 5 2148
699 2.7222433345481369 3.6834427323013452 19.46740403140377 201 100 76 2.6371349534618864 2 1892 3 1076 4 868
700 3.8115994916740843 2.9398179883339792 19.98527629037579 178 85 64 0.24399135126002119 2 1711 4 693
701 2.0698277937034399 4.4883787590999695 20.157933014632583 196 96 77 1.4213367660282161 2 2065 3 1200
702 0.75046051884145282 5.0540164298891126 18.411397508404164 200 99 78 1.3993152783780378 3 1251 4 1112
703 3.4238683025334766 3.5362469542052515 19.833139817816505 199 100 82 0.94850775537414944 2 1843 5 2182
704 4.7276978835749688 2.4313589813808654 19.596695235206173 171 79 62 1.6545436950699164 5 2183 3 930 4 580
705 1.6033606273308927 4.5505513849031543 18.903404948029326 199 103 86 1.3041516343181039 2 2144 4 1008
706 -0.9518675907305939 8.6065375820264496 25.15698247828778 208 107 86 1.0207205447630818 2 2602 5 2194
707 0.73890980228360936 6.3906070154441421 21.998521152200173 191 101 81 2.3955149600507504 2 2372 5 2201
709 -0.8010665741833205 8.5737659390644989 24.445068691428748 203 103 82 1.417098694881104 2 2647 5 2224
710 2.8547708461676184 4.0485601117291443 19.40721704145718 200 95 75 0.56346900602737704 2 1993 4 923
712 3.2031223221715104 3.9754129766026658 19.570747964647762 204 101 81 2.1384972094391075 2 1958 5 2236 3 1148
713 2.5460361052290734 4.4844761898855712 19.401202216238353 191 95 74 0.059835654129804829 2 2106 4 995
714 -0.17069341071885846 8.1760583350707741 23.460302398948073 212 106 82 1.2287045370047247 2 2618 5 2271
715 3.084617614686318 4.1507161453555748 19.257326437788699 197 93 74 1.8530533979783135 2 2032 3 1170
716 0.064871633699899733 8.1187395056179099 23.403542693413169 215 113 89 0.091549949065334452 2 2615 5 2289
717 0.83239159037368937 7.3889614592890371 23.015223957672891 207 108 87 0.30117475152145179 2 2512 5 2290
718 4.8609551755265894 3.051944319873185 19.615944480133017 172 78 56 1.0062694463232167 2 1743 3 1046
719 3.1965790392488294 6.1729993170783839 24.797030871089664 173 85 71 1.5174070213345763 2 2218 5 2301
720 3.8418350428646253 3.6010703939361228 18.595053045008591 180 75 60 0.16625302840604278 2 1911 3 1106
721 2.6424691062603634 5.7865427190132763 22.066838418536964 174 88 72 1.678002023695329 2 2247 5 2311
724 0.23875765491943857 6.7366898665916173 19.472959147141157 210 104 81 2.3928863001920035 2 2591 3 1555
727 1.4428498853144101 7.4393773151535907 23.074237462361257 205 104 83 1.272728084006685 2 2515 5 2369
730 3.0679509434874324 4.7318746208883233 19.283227289691954 181 86 73 0.28487503324219421 2 2174 4 1029
732 0.47820796327801723 8.4477987497071343 23.423266333969853 213 103 76 2.4949622085236678 2 2679 5 2389
734 0.60803356802588515 8.3993948892460697 23.433699428977771 208 101 74 0.64914544430952836 2 2673 5 2394
736 0.31917368722330469 8.8581259267567951 24.015704988439726 215 112 87 0.49961280237278682 2 2716 5 2399
737 4.8496596743263645 3.6155799634791408 19.633518256312644 214 120 99 0.13349906332760508 2 1874 4 825
739 -6.4774441257945625 -2.3021151086759684 28.120647590886026 141 75 63 0.95868799428099005 2 632 5 398
740 -8.9276481886607808 0.27448715344010849 31.665474896306108 249 164 126 1.391491236124311 2 1119 5 548
742 -7.0627916324276914 -0.14301042418746523 29.09165778869917 185 99 74 1.019693447099161 2 1021 5 607
743 -9.6802513226566234 1.5777803822012073 30.775173488323745 245 164 132 0.37713051198834918 2 1333 5 616
744 -5.7521882024351161 -0.15890829363993986 25.417959980745476 147 77 64 1.0564169513866297 2 1008 5 620
745 -8.2615622443279388 0.76501033681568742 30.588952006538317 245 164 127 0.93215648688529507 2 1202 5 632
746 -7.8533561941409253 1.2725066462848127 28.036508242958494 250 176 140 0.97642254578364041 2 1292 5 663
748 -3.8928869157979844 0.42627795936472374 17.843766240525554 128 68 52 0.71120954308837836 2 1083 3 259
750 -5.4116155981998908 0.66793813816169001 25.113256349139686 167 88 73 1.472592737186174 2 1162 5 739
751 -7.2697495164001102 1.8771060091367209 29.677213507755205 221 115 84 2.2282765241656621 2 1393 5 783
752 -4.0233614667525854 1.118991409340895 18.144772629608134 142 72 57 0.67738384999695089 2 1295 3 415
753 -7.2017473498501046 2.5052495933479326 30.195464490828343 224 111 80 1.0725464995367036 2 1483 5 883
755 -4.7008371129567639 1.6518867317105312 23.535808302347498 157 77 59 0.30288542707241145 2 1385 5 920
756 -6.974054046364639 2.7263598655304757 29.726820328405303 222 111 81 1.089715578262358 2 1524 5 925
757 -4.3205610103869301 1.7108212940739833 21.65363040631788 158 71 59 0.97641450986395928 2 1420 5 944
758 -6.8569503456889853 2.8617682213404581 29.454121512329561 218 107 78 0.83793365769045292 2 1545 5 947
759 -3.9641197319218993 1.7093988825102633 18.266007914047812 159 71 58 1.6552250848590322 2 1452 3 538
761 -7.4422121457982113 8.2718408289417198 27.277302810146775 244 153 125 1.5096601564210448 2 2459 5 1511
763 -4.3462373630877034 7.5628558280738387 25.346112701814189 242 138 105 2.6553016271021246 2 2434 5 1723
764 -3.2039461124890782 6.8973948979420134 25.491430893234742 233 134 106 2.9177099415690297 2 2325 5 1751
765 -5.04977141578133 8.7119637178069187 25.676439416902017 250 152 120 0.64025999325734695 2 2593 5 1811
766 -4.992777259497057 9.657489108510859 26.872546857176093 243 146 110 1.4576655211779475 2 2701 5 1931
767 -4.162763018723445 9.3576546656041941 26.359097681723302 240 138 105 1.0722099490352246 2 2678 5 1997
768 -2.5361611356638392 1.0429109314714469 19.259079769611446 135 77 56 1.1591488150871534 2 1272 1 2044 5 1013 3 493
769 -3.0372255255071048 -3.9226170027287632 20.507097600160538 134 77 64 0.31517205788082281 1 882 5 205
770 -4.9103324826816053 -2.8734160792965793 23.043613837696608 133 72 59 2.4682193600917515 2 378 5 271
771 -3.9521929264240825 -1.6287454949557114 17.644197127430477 135 73 59 2.0295873731583134 2 483 5 306
775 -1.7057774788395397 -2.0863383269733093 20.372053043045316 133 74 60 1.2940985764961206 1 1247 5 634
777 3.2077442963140212 -3.7780014834006095 21.037122715057293 194 111 91 0.96547200838981762 2 102 5 965
778 -0.0027811658724804771 -1.0544379089306017 20.163990411725067 137 75 62 0.066249070050448902 2 707 3 180
780 -0.14148784138005419 -0.73668219062707807 19.616804711502397 138 68 54 0.11914964715997545 2 779 4 76
781 -0.1821794729535566 -0.46481139070478272 19.069147505512579 132 64 45 0.41836818619702998 2 853 4 95
782 -0.91331715199822849 0.10161801685468684 17.732471108870683 155 83 64 0.51499214160820039 2 981 5 1065
783 1.7510179583570296 -1.9398139811713617 20.914936491678624 167 87 68 1.4295144606693886 2 508 5 1105
784 3.7120550244202621 -3.4000348290948836 20.044673650046537 121 67 49 0.11309586587784842 2 128 5 1106
786 -5.0622541226882323 3.0742728095787002 26.679694445855212 207 114 95 1.6171188181766354 2 1625 5 1134
788 1.5025890290939368 -0.78083240287999611 20.287766360258505 180 100 84 2.6676425419462175 2 788 3 280
792 1.7938786096046608 -0.14502592194855149 19.818288756040161 180 88 69 0.063783963936217408 2 934 4 176
793 1.1256258634451162 0.62852109309240289 19.25447239053608 223 127 108 0.67133812946896354 2 1133 4 308
794 1.166337209888759 0.6076965708968024 17.987935418894075 195 103 80 2.0821709028757525 2 1134 5 1435
795 1.7386618042235564 0.57814132949817909 20.121488516368053 191 97 74 0.62970278632689902 2 1126 3 547
796 -1.2249336346147432 2.605693710765618 17.725091783192489 210 109 86 1.5310932715709433 2 1700 3 748
797 4.6611953989310546 -1.7049991706332746 22.773367524542337 167 84 66 0.11034064323674721 2 612 5 1465
799 -2.4978042926930009 3.8934565223248172 20.161423764743265 203 115 93 1.6888522221575553 2 1919 5 1503
800 0.94555864860349559 1.2438621320344985 17.430593051002077 208 111 87 0.8010843939671044 2 1327 5 1524
801 1.9010273252351122 1.5979139602311068 19.022329459156811 190 95 77 2.0635363303138909 2 1396 5 1684
802 2.7852049648957009 1.5225010418899396 20.03222370907454 194 102 79 2.1564960485897497 1 1880 3 704 4 475
803 -0.66993205684406043 4.6215162320973935 20.694834624982906 199 110 92 2.3489891658854543 2 2073 5 1842
804 0.14399426028835099 3.8641100492706055 18.352597132881449 194 101 84 1.1411600497461802 2 2009 3 1033
805 1.1560868290795558 3.4666155823027864 18.735816509198138 171 84 68 1.1180620846256824 5 1965 2 1872
806 1.3021028788409728 3.9484778370787352 20.827844305182403 175 87 71 2.6940279930828925 2 1903 5 2008
807 2.5469863756246531 4.2787239645424364 19.272827473596735 192 89 68 1.8772405458891381 2 2057 3 1187 4 955
808 5.4440476044746529 3.1972357734217725 20.100271356869424 193 105 87 2.1377816122944711 2 1759 3 1087
809 3.0648155637869241 5.9520862781570365 21.647913703002882 180 91 73 1.2346704656769438 2 2307 5 2413
810 3.9489573755853105 4.85537643670202 20.57928020845884 181 86 69 2.245816126640173 2 2123 5 2414
812 -0.20554609920888148 -2.2349220192152912 20.366786213654763 0 0 0 1.6227093754697421 1 1121 5 773
813 -5.188137200915893 -0.20537062347347249 16.444054826447037 177 99 78 1.2006029929835207 2 883 3 9
814 -4.9641705090250685 -0.32353412251348096 16.804428005555266 173 99 79 0.87379582366801678 2 855 3 17
817 -4.7851439910190674 -0.27587902535756831 16.999261811100745 172 101 81 1.0628813588874357 2 875 3 45
818 1.275513045658659 -1.6959602375139433 18.939922125888391 0 0 0 0.66610554965890878 2 494 5 1059
821 -1.6522019648252599 -1.565766003905299 21.109210095235515 124 68 53 0.20372675310886099 5 721 3 90
830 -0.86184067713557766 -1.0565579700542662 20.23885108447146 142 86 71 0.23006090487713651 3 160 4 67
831 2.8930973274105822 -1.4847121260801637 19.792815645716932 158 82 71 0.7576974631231489 2 575 3 161
833 1.8423431427861106 -1.3240773367867147 20.076231751378636 158 77 59 1.6295221959143471 2 638 3 172
835 -0.55149104612768074 -0.90187738974368692 19.668316162337003 134 77 64 1.7949119577515997 3 174 4 57
838 1.3087028957951385 -1.3829914191987456 20.968861227720978 162 84 62 0.68255885370540614 5 1155 3 195
839 2.6507898927443443 -1.196895407994387 19.624948733318423 164 105 84 0.1665053878375003 2 650 3 203
840 2.1167070640339145 -1.205331608226623 20.149440026528673 179 105 93 0.42127737979541774 2 659 4 9
841 2.5748015991590201 -1.1253492242202283 19.9407778560923 157 87 74 0.46902702570907345 2 675 3 235
842 2.3564571564824344 -0.97490109520115786 19.91061756129664 166 91 73 0.035046879244589338 2 720 3 257
843 3.7987036335189273 -1.2627517006311237 20.272637137000782 167 89 69 0.55985844399129547 2 651 3 258
848 -4.0908171563767102 0.76611169609575147 17.736721300618761 152 87 69 0.66717969653406184 2 1195 3 323
851 2.426534664233627 -0.69340348647788486 20.25295505051724 166 82 65 1.8804207443434644 2 801 3 332 4 83
852 1.1835745038422059 -0.40916143567915719 20.056208596984415 171 95 75 2.6126397193195228 2 880 3 334
854 -0.44668776493539364 -0.085558630236850189 19.002564157429035 146 77 61 0.80459238705537328 2 948 4 175
855 -3.6592077548894797 0.64039810029164956 19.389319610391436 0 0 0 0.58141954052491851 1 1999 2 1149
856 2.2205289268151627 -0.54937191461630996 20.452409834960786 176 85 64 1.3190985616544426 5 1369 3 361 4 110
857 -1.189057069799818 0.11074487549270041 19.859547127138914 155 101 85 2.5837269282091975 1 1770 3 374 4 251
858 2.0047468984998873 -0.23176029371075843 19.80932679564291 190 102 81 2.355878457042285 2 917 3 378 4 162
859 1.7989000089637956 -0.2162018102987103 19.784495759944086 180 95 74 0.4213305968176021 2 915 3 387
860 -6.9837043639240797 1.7893724092816801 16.653107262598862 223 134 107 1.2242898676912932 2 1517 3 391
861 -1.4577309395008697 0.26580486896882805 20.055423577269735 127 75 57 1.8430932066913104 1 1808 3 393
862 -3.5463624394467965 0.6708673840535756 18.897165307155273 128 81 73 0.19834096322659828 2 1157 4 362
863 -3.4516908125495349 0.74012283127306877 18.951183430371138 138 82 67 2.6319344359898 2 1179 3 396 4 365
865 -3.3944470036606238 0.93556688851443004 19.675782543870774 0 0 0 0.099531721252312744 1 2020 5 890
866 1.5574107099551879 -0.089781947739526205 19.963187289853206 175 86 72 1.169473002118774 2 949 3 417
867 -6.1027803435727304 1.6852729067595296 16.950708255591476 224 135 109 0.41901798760719638 2 1471 3 419
868 -3.1257785989170164 0.91099583735320333 18.437047822824432 129 71 63 2.1507205403500622 5 895 3 420 4 376 3 410
869 1.0230552791999221 -0.24275501375828093 21.674350101281295 177 92 76 0.48713963122084541 5 1276 3 431
870 -1.9901004269354541 0.62431624680360231 19.709533138655928 100 59 48 0.4587254966366634 5 1034 3 435
871 -0.90689528329724889 0.5286786951957505 19.21341724344801 136 74 52 2.5917912017767613 2 1104 3 439
873 -6.6131005724887775 1.8450998176363915 17.342529866856196 226 139 109 0.51526617010793596 2 1515 3 453
874 2.8833890883107758 -0.10192372333027304 20.10919254522338 174 87 63 0.96918749837747642 2 943 5 1525 3 457
876 -3.7855143588839293 1.1030449706632779 19.228852832473684 140 72 59 1.3865749959125591 1 2115 3 460
878 -2.7545985013670053 0.99588040593152283 19.062388917626567 128 67 57 0.85005357384423774 2 1254 5 980 3 465
880 -0.18807946057406066 0.4954632180228638 19.700933674935559 197 104 79 0.1795896208793685 2 1105 3 472
881 2.5749046167228991 0.0082757557671346276 20.480029051883815 173 82 63 2.482144485325513 5 1506 3 485 4 212 4 228
882 4.562470237599511 -0.20049768907206822 19.9806204638633 167 82 63 1.5404332620537247 1 1404 3 490
883 -2.1739189168321209 0.92286441301310274 18.640970829720832 126 69 56 1.0306105326040367 5 1046 4 377
884 -3.2390253965729912 1.3936420011466568 17.994303903885278 150 78 62 1.8080162624501595 2 1366 3 501 4 435
886 2.5467831819909281 0.048011947474472107 20.934147825942901 176 86 67 1.6919196050881409 5 1505 3 506
887 -2.2336917282831483 1.2244200097556843 18.919967762942139 180 96 79 1.2316227625914786 5 1110 3 521
889 0.65352874849446185 0.73210789666215703 19.395461661763402 195 105 81 0.51217556751014981 2 1164 3 527
890 4.3405999071870314 0.093408960273329761 19.859016990769323 173 84 62 0.52297860374155958 2 991 3 530
892 0.7851864560806967 0.78966504440271901 19.561365687144679 183 93 71 1.0968976409810711 2 1190 3 539
894 1.0039879609948046 0.86488006176608301 19.981512302339596 193 100 78 1.9576047826970298 1 1823 3 565
895 -6.8851251836841572 2.1587276846814212 19.95717765777805 219 128 99 0.10761188070999447 1 2434 3 566
896 4.7856183338666725 0.28167262605911453 20.082307706736707 167 80 62 2.0790750924153292 1 1500 3 567
897 -2.7264394494550839 2.015739849141704 17.075268794504261 183 95 76 2.7563724293822314 5 1176 4 518 3 580
898 5.8598061635242988 0.14034005964040386 20.10931016993711 140 73 58 1.3526976060385911 1 1405 5 1993 3 572
899 2.6198287719034368 0.68619879778070747 19.860906266075975 181 85 65 1.3368220550313896 2 1142 3 582 4 323
900 5.5280510652480981 0.36348732072719198 19.483729229606976 148 77 59 0.35621264158700128 5 2005 3 589
901 -6.9237710907890557 2.3217657492788768 20.268910940082005 223 133 104 0.0020300668435685064 1 2436 3 596
903 -8.5340352434688214 2.5968643181638722 20.294280176798868 229 140 111 0.77053074968841173 1 2566 3 599
904 4.7514004261123262 0.56062417829864408 20.380230431656567 165 77 60 1.1966349320839056 2 1117 3 614
906 -1.6026063771688879 1.9206006324677825 18.869765347407977 195 101 79 1.82272424469418 1 2224 3 632
907 2.0654946704979666 1.1626445764343674 19.911592370937864 190 97 71 2.4513054984901452 2 1282 5 1601 3 633
910 -4.0592548923794247 2.4552722957101292 17.958340051612986 202 115 90 0.13837629604109228 2 1663 3 637
912 2.4285504495649723 1.1459657068096452 20.10839788692132 191 98 77 0.1594439758535349 5 1648 3 643
913 -7.0345823458403309 3.051047587908466 17.192320703510191 238 154 118 1.2514632970288888 2 1840 3 647
914 2.1525493237173179 1.1537851353091497 20.645274482920613 174 87 64 2.1645933752475899 5 1606 3 653
915 4.4287875597751611 0.84283578908494738 20.232050620210039 178 89 70 1.0758218245423958 2 1198 3 654 5 1893
916 2.1705116543920751 1.354839897264188 20.199362470660827 181 87 69 0.75235701343356398 5 1646 3 664
919 2.1348118598202905 1.4151716700004713 19.557960451909469 187 88 68 2.1018465676883489 2 1341 3 673
920 -3.4076271730957846 2.4544706477626672 18.020813598076678 168 84 65 1.7399326049998645 2 1664 4 625
922 -1.868741997607954 2.2639059207438716 18.752773955981347 196 97 76 0.22277611555213261 2 1586 3 681
924 2.2714318022093756 1.5442780910122638 19.46932855757235 189 91 72 0.12013001735599931 2 1382 5 1715
927 2.3184650264165745 1.662017612996795 19.533482475381831 192 87 70 0.82937118143901134 2 1409 3 721 4 477
928 5.7994432059918513 1.0796888646262088 20.569474885917845 169 78 61 1.2830493694592973 5 2091 4 383
930 1.8375742342161483 1.7869459652010915 20.130548852603077 191 94 75 1.9527276627918289 5 1674 3 738 4 508
932 -2.2448031571177207 2.7682112506632448 17.730703631699523 199 103 81 2.0359777942024522 2 1755 3 746 5 1351
934 -1.7782767989795054 2.7618997138385706 18.648209420662475 210 109 86 0.96326650031870975 2 1716 3 766
935 -2.2311062082118038 2.9883225996573985 17.350691571439921 202 106 81 1.6096862519172015 5 1398 3 779 4 707
936 -2.5234981664463829 3.0427794517386615 17.182602338004674 187 100 78 0.20159925215228147 5 1366 3 783
937 5.6813113805005262 1.4421572048617755 20.145187903726235 181 87 72 0.45170522942932945 1 1707 3 786
938 1.4710666504788958 2.2068295915834364 19.505186173173129 183 91 72 1.9570697001627011 5 1720 3 788
940 5.0265836682830249 1.8849899123855258 19.763124537941398 183 93 75 0.75956241098787081 5 2135 4 491
943 -0.54841649412757465 2.7564387615111756 18.826414940685829 218 112 86 0.088095152214321654 5 1556 3 816
945 2.4675585869393428 2.283078909282148 19.489388030340113 201 108 83 1.9926859466889255 5 1909 3 825 4 575
948 3.7252199119290466 2.1196170208671501 20.404283700375107 175 78 58 1.4969757227226246 2 1516 3 852 4 548
951 1.3792128601994136 2.7272529662311689 19.370643946356743 193 97 75 2.4552089337929588 5 1819 4 665 2 1695
952 -1.8944055260728849 3.5065299802577385 18.525633901526607 195 101 79 0.6211535633908245 2 1901 3 903
953 2.0574180035933276 2.7354337059098697 19.692864220322807 210 116 86 1.0415870039260196 2 1683 5 1918 3 906
955 -0.44288934030997362 3.2696765982621319 18.151282877663821 210 109 86 1.8603080846414184 5 1656 3 914 4 775
956 2.7552733759214707 2.6026647471658295 19.486456411948563 193 104 77 1.0808299796621017 2 1641 4 627
957 -1.6871922915464477 3.6100266029160277 16.896108777315678 198 105 84 0.71411461500737305 5 1569 3 919 4 840
958 3.0107350092638128 2.702865517644955 19.555220045605772 183 88 68 2.0287410188210053 2 1667 3 922 4 653
960 -1.650560926858341 3.5781495347529444 18.60140118704788 201 98 75 0.86911051655046001 2 1915 3 924
961 1.6679591848402597 2.9724061505782458 19.428095110674295 197 100 79 0.87046925762896321 5 1917 3 934
964 3.8911039681253903 2.8077006691829047 19.166280169485479 196 92 73 0.21086592768353202 5 2153 4 642
965 0.69848402817516719 3.260239251748859 19.303568771058902 200 99 74 0.60249329539634722 5 1817 3 946 4 789
966 1.769440237371587 3.0985900399915831 18.856899971757443 200 100 77 1.741143149801003 5 1981 3 954 4 727
968 4.3008556468690555 2.7787745798078238 19.914982880937533 202 108 85 0.17158182804631134 2 1684 3 982
969 1.5142343932748044 3.3317846521666477 19.199143415344704 192 96 79 2.0045909958928942 5 1980 3 985 4 799
972 3.0569130083217737 3.2118471619924023 19.485859576090057 202 97 76 2.3761830015014014 2 1792 3 1007 4 767
973 5.6057924631897835 2.8429871569257172 19.574819513064945 194 91 76 0.86625951181243788 5 2349 4 635
974 0.41587141639673864 3.5458001790707732 18.665390944371776 186 100 79 1.0513839465810357 2 1902 4 838
975 0.41398655151251595 3.6654808286493044 20.092042849391618 189 106 86 0.050336068687296259 3 1018 5 1835
977 -1.0860818108170422 4.0031837042597846 17.023836747440654 219 121 97 0.57790529196507012 5 1741 3 1022
978 3.2485707420296404 3.3011579168655376 19.224793428569036 210 106 81 0.95096204279836494 1 2270 3 1035 4 769
979 -4.5378562071664463 4.7649744824993876 17.734995731288027 241 146 115 0.87743962656415464 2 2272 3 1040
981 3.0064844470386101 3.6773302295251278 19.179333492867514 221 107 80 0.91793331009674772 2 1910 3 1083
982 5.141284577210337 3.3148636027064211 19.340371160053959 207 106 83 2.5127960596522758 5 2386 3 1086 4 758
983 2.6953790880990893 3.7614784831362535 18.706343636132431 221 115 87 1.2152672321340474 5 2168 3 1088
986 -0.24198010111723062 4.4327627613156881 18.690180594482715 224 127 94 0.7015344737638034 2 2133 3 1111
987 -2.7385262141462015 4.87542820210047 18.784183718745801 242 149 113 2.5032363799539787 2 2228 3 1115
988 -0.62441899866562112 4.5269448017908935 18.541115869071742 232 126 92 0.21929781597409978 2 2167 3 1116 4 1017
989 -0.79403234446517867 4.5534455926912756 18.439209235844945 233 126 98 1.363606506997457 2 2177 3 1119
991 4.3530430034260084 3.681241367063572 19.676834018309595 209 101 78 1.7339047600225774 1 2250 3 1127 4 850
994 2.4392823799218264 4.102774776447017 19.075979837843022 219 107 83 2.3781866049371745 1 2519 2 2019 3 1147 4 935
995 4.364268922231501 3.7723600982043686 19.364898288244483 211 106 81 1.7322195060847974 1 2302 3 1152
996 0.57746742338804469 4.4839021012763505 18.716626822907735 224 122 92 0.049711386281358745 2 2139 3 1155
998 3.946218764646384 4.1183555615068368 19.428615264745424 214 105 85 1.1993671647173116 1 2412 4 924 2 2012
1001 3.7557413082085374 4.1013244777599951 19.541547350750378 216 108 88 1.9696646377108142 2 1994 3 1193
1002 4.3351899204959778 4.0111936503528574 19.417841870053021 218 110 86 1.3045658808566636 2 1976 3 1196
1004 5.2752349028415608 3.9701693731962107 20.911209115592332 201 91 69 1.8978825006429743 1 2160 3 1204
1005 2.9497334576474188 4.3666736132900441 19.26921461286609 205 98 75 0.0026963260697797195 2 2087 3 1207
1007 0.64407013725446893 4.9215998845620881 18.507765990311508 233 126 101 0.74152535807347963 2 2249 3 1220
1008 -2.8953264018209555 5.4372307557570974 15.074194946918597 241 146 115 0.82096714184686959 3 1228 4 1221
1009 -1.7276867385666159 5.2237447339003023 14.687464952691627 248 156 118 0.094389131796346087 5 2015 3 1234
1012 0.41083225157565018 5.0826379920485856 16.862594116342628 230 128 102 0.63832169514784687 5 2165 3 1264
1013 -3.1852871794416875 5.6399742284681285 14.935221487316177 250 162 128 3.0796568156550492 5 1809 3 1267
1014 -1.5572673389886094 5.6562043472729009 18.657412603006886 240 138 107 1.0529364930545704 2 2420 3 1273
1015 2.4774750621302091 5.0353817170870991 18.532188405996646 206 103 83 0.57534465692083347 5 2352 4 1094
1016 -1.167191406648761 5.399872818537502 15.477787125400093 243 144 112 0.51303885852395292 5 2084 3 1290
1017 0.95080700063796519 5.2710929873784629 18.802858104498448 224 121 99 1.4138125689365815 2 2315 3 1298 4 1162
1019 1.6917115177799831 5.1148553347104402 17.429399132269666 212 116 94 0.49389589868068506 5 2310 3 1313
1020 3.7414347930647054 4.9374925897703754 19.623977000830262 214 110 88 0.41750287632500405 2 2198 3 1319
1021 2.7405904809958588 5.1441260385169922 19.269022161279981 200 102 83 0.97585519870951143 2 2261 3 1326
1023 -1.9066132730134107 6.0088922772467619 18.227040839634213 248 151 115 0.33227937457636558 2 2529 3 1334
1024 3.0223292890934812 5.1320026520964346 19.525361241809755 200 103 84 0.74734519811325484 2 2243 3 1336 4 1114
1025 -4.3794497266159897 6.5549535441547633 18.509671656777098 248 156 121 0.31170005234996911 2 2639 3 1344
1026 1.8198567299873158 5.2359255760578423 17.338703971624934 215 126 105 0.027449805299036692 5 2366 3 1347
1027 -2.2062245360511112 5.8111146536979801 14.515174436321955 248 158 119 1.700091379349189 5 2055 3 1358
1028 1.8574131885247049 5.4651149787145457 18.937808305621143 213 122 104 1.4437135077894012 2 2362 3 1360 4 1192
1029 -0.62861450297264088 5.8450411434930691 16.36007162383763 234 131 105 1.4324663969488678 5 2179 4 1302
1032 4.2336844633712625 5.3263039287256237 19.333309491776347 225 120 89 0.10369875820635704 1 2664 4 1138
1033 3.9330116405054674 5.2934306659956958 19.296404360619434 231 130 100 0.58548591111906534 1 2672 3 1407
1034 0.17859151528879644 5.7942722612560074 16.648528478933411 234 133 110 0.59911122283577134 5 2265 3 1411
1035 -2.2535307883907016 6.0638335664077747 14.575264430626893 246 159 122 1.4612387323806799 5 2083 3 1423
1036 -1.664598100501874 9.6443941492550547 27.561137517698853 0 0 0 1.0896057212052062 2 2641 5 2177
1038 1.2922279342866827 5.9803372377300335 19.236967169248345 219 118 96 1.2318862860386885 2 2456 3 1444
1039 4.846726929363526 5.282942202761177 19.430643595840802 219 115 84 1.3428372929452363 2 2277 3 1447 4 1131
1040 -1.5433532517646835 6.2609306352213503 15.536989899491871 244 145 108 2.1688742487669126 5 2161 4 1435
1042 0.75653492133248124 6.2076375693096661 17.478735825850315 240 144 111 2.29287586276258 5 2380 4 1377
1043 1.0482517081932525 6.1726797539019183 19.147207486762525 235 137 108 0.20041496662060121 2 2499 3 1475
1044 4.0344054149361384 5.648771277537489 19.833540745215014 226 121 90 0.088946985929999361 2 2345 3 1476
1047 1.244042161431328 6.2281928592310196 19.560607791048039 231 122 95 2.2015011845888526 2 2479 3 1495 4 1352
1048 -1.0052899810894451 6.2021131574904569 15.199574833916627 247 146 112 1.2109251865801558 5 2244 3 1499
1049 -0.58582371391471311 6.2319845642802001 16.332126146967404 236 134 104 2.3474863578313903 5 2246 3 1500
1052 0.78838273387066793 6.330346255634189 18.871622050354809 240 140 103 0.79813490634753692 2 2552 3 1507
1053 0.73353148719862626 6.4457844724517983 19.052306162447952 244 143 106 1.9448725725296174 2 2568 3 1521 4 1410
1055 1.2601659402146479 6.567201464184115 19.312292173838738 238 138 106 0.42230794464275168 2 2569 4 1438
1057 -1.5020758187958201 6.536044875555163 15.201335392849906 250 162 126 0.14628832837309291 5 2235 3 1560
1059 0.84501843764750939 6.6351816365998975 19.128619454472698 236 138 100 0.7001909033382745 2 2596 3 1562
1060 0.94732128355197531 6.5808802231811985 18.908846894063075 239 138 102 0.61649567036031638 2 2603 3 1563
1061 0.57459528076993138 6.7658901556567361 19.15307255510584 245 151 114 0.28834789418559936 2 2629 3 1577
1063 3.8781374784148905 6.2255926925216372 19.855990145616968 217 100 78 1.3144712494628283 2 2466 3 1583
