# 3D point list with one line of data per point:
#   POINT3D_ID, X, Y, Z, R, G, B, ERROR, TRACK[] as (IMAGE_ID, POINT2D_IDX)
# Number of points: 394, mean track length: 3.1748563386888708
2858 1.1125397709853855 -6.6978345793125573 11.630370693204281 213 112 89 1.0163726743034547 20 235 25 491
2859 0.76248498358683514 -5.7981734144184642 10.392239286121979 197 96 71 1.1807905551826394 20 894 24 521
2860 -0.41472989571390884 -5.5911126506462878 11.177090478336106 236 134 105 2.2447872159614191 20 368 24 651 26 720 25 617
2861 -2.6477432352995609 -7.2176565923210116 14.608506175702018 219 114 88 2.0450627935472556 20 1420 24 661 26 790 27 671 25 638 19 2508
2862 0.049853897434025046 -5.155110196066369 10.353213100226119 241 192 150 1.4987418837558406 20 42 25 639 19 2897
2863 -1.8660251176960252 -6.7738120760588059 14.454143437314849 210 107 83 1.7929996836012156 20 1588 24 701 13 1990 16 633
2866 2.9741227132984567 -6.9263087694055505 16.650108664704977 215 115 86 1.5729092965747027 24 848 23 823 27 1041 26 1167 25 853 6 315
2867 -3.505226464335975 -4.7810486361813576 12.576343262061851 151 76 59 1.4979915349191768 24 870 5 1477 16 842 11 446
2868 2.7447783647364714 -8.2537229626451705 20.666099669870583 220 115 92 1.1646144710987452 20 1836 24 879 21 870 22 880
2869 3.2343548718379966 -4.9080832177972251 12.959840184805156 187 92 71 1.226019706301356 27 1137 8 556 19 314
2871 -0.37537806521135375 -5.3558647117116527 14.802234493917675 218 118 90 2.4411576796933447 24 916 26 1223 20 147 14 2283
2872 2.3269745798834407 -5.4015203517695127 14.865736572519477 214 106 83 1.555839784238519 21 910 16 739 10 246
2873 1.0064351564050815 -5.1933565442096876 14.766580019415299 221 121 92 1.7439639635714745 20 2133 24 980 26 1289 25 971
2876 2.679608236392796 -6.5734435805548097 18.805658365594589 215 104 78 2.5619525571776061 24 1001 26 1375 27 1193
2877 3.8474812788200778 -5.5568289067750056 15.977329355547049 189 88 63 0.90460218087526789 27 1244 14 2966
2879 -6.0322998577986393 -4.7984620891158514 15.093532705119149 185 90 70 1.3671882399231052 24 1038 26 1312 2 1202
2880 -1.0955616836469666 -4.998116807371848 16.745567429260529 165 89 71 2.2391533399601027 21 1089 24 1079 27 1234 14 625 2 927 22 1081
2882 -3.7529501654943807 -4.5002319144193459 15.672209435009485 170 90 74 1.6825662307901215 20 1926 24 1113 5 769 16 987 18 757 11 565
2883 -2.1733608770514294 -4.9428572289083883 18.125301747372621 163 83 66 2.2306990400999358 21 1189 24 1140 23 1165 16 978
2885 2.5847340027880206 -5.2923931408609537 18.809241641026091 216 106 84 1.5008420558132498 20 1598 24 1157 23 1139 26 1569 3 1195
2886 -3.6516485741392355 -4.382867986686084 16.874674262049055 184 94 73 2.2260981300742633 21 1239 24 1172 19 2968 5 2072 13 934 16 1042
2887 -3.3299645220445346 -5.8460573387550134 21.399273370165471 171 88 66 1.1497363355220169 21 1216 19 801 8 888
2888 3.0902630443715839 -5.8778465504932029 21.297257059560852 228 121 95 1.4230661792039683 21 1140 23 1173 24 1179
2889 3.4188116203363919 -4.7073321410918201 16.974006237564367 204 98 74 1.6616751850642648 20 916 15 1336 24 1180
2891 0.94083464747426349 -4.131747715622784 16.21963929451735 229 129 102 1.4293234168851612 20 2736 21 1177 24 1193 22 1206 23 1193 26 1614 15 1426
2892 1.1885373361657565 -3.5589883529032926 14.983634203995704 220 115 89 0.70113711229925302 20 126 24 1244 23 1213 15 1461 16 981
2894 8.5802049664153035 -5.2135330708672383 19.532635927013327 134 66 53 0.95697829293394499 21 1180 24 1265 15 1291
2895 -3.5927233785334103 -3.550145479126309 16.49170158897488 184 97 74 1.5313285055036185 23 1348 24 1267 26 1685
2896 -3.267030260465277 -3.5294295735656913 16.288958860497363 185 98 77 2.2822792469951936 23 1324 24 1268 21 1373 24 1269 25 1268 1 1471
2898 3.9796865721942791 -6.4038985119743863 27.318970188906292 211 107 83 1.4520728372323051 23 1323 24 1295 21 1312
2901 -1.5227431267664318 -2.52083122163361 12.843314968804256 176 91 69 0.89865051672021901 24 1329 26 1732
2902 -5.7549531358484334 -3.557165966422152 17.582602391297581 171 83 63 1.7770253244668239 21 1458 26 1708 8 1119 9 1073
2903 -4.2125303827700913 -3.4279003483874377 17.500343831263898 180 90 70 1.5260753878842324 23 1418 24 1343 27 1480 7 900
2905 0.70551253361593991 -3.2211185354698402 16.27210418894331 216 111 84 1.4721221434046499 20 2200 24 1361 10 515
2906 1.531593163827121 -3.2281918847929392 16.476706127689376 213 112 91 1.8568674873937816 20 81 24 1379 26 1809 19 499 13 1097 19 1724 9 934
2908 6.1908111476824672 -3.196543623825927 16.884841201122224 164 82 67 2.0162168945908547 20 196 15 1493 13 400
2909 -1.9059648151375976 -4.0549133754730473 22.984031942384316 161 81 64 2.031869491090537 21 1479 24 1417 15 1655
2911 -2.6911936629851887 -2.9176817755452658 18.784544761877321 165 79 58 0.37145153241089629 21 1538 24 1451 19 323
2912 -7.7848928759936191 -2.6645164539144472 18.260857822995771 177 89 68 1.7738896064015135 20 351 24 1460 14 1107
2914 1.6238257047288571 -2.8791190037528422 18.71679218916217 214 107 83 1.9709551540503627 20 1465 21 1490 24 1477 27 1716 5 2071 5 41
2916 8.4636520553301722 -3.7633193800077098 21.118921148291925 138 77 59 0.92601935940793489 20 2735 24 1481
2917 1.6032702184229239 -2.5781900647839202 17.961738654056838 210 105 81 1.7858697078799282 20 2434 24 1494 25 1470
2919 -3.9564126626138436 -2.2767996903664804 18.0389010750247 166 85 65 2.1182557428485906 24 1510 22 1629 25 1473 8 1224 16 1280 6 1049 17 790
2920 1.3905562080010161 -2.3024401072339837 17.015943724580175 234 125 100 2.1657492529249249 20 975 24 1511
2921 -0.22521255148447356 -2.2710576776766733 17.31258096035706 123 65 48 1.7041081767416211 20 1102 24 1515 27 1734 7 878 17 749 14 979
2922 -3.7637248911642471 -1.6508010087632481 14.406955507860149 167 80 59 2.2275206916795853 22 1640 20 1372 27 1689 24 1520 17 792
2925 -4.2479026028619327 -1.718167585401007 16.85196132950762 167 81 59 1.0432869993476841 24 1541 26 1990 23 1635
2927 -6.6293118629715737 -1.6670082175821428 20.937668226072546 165 83 60 1.9003345400956435 24 1579 15 2042 16 1407
2928 1.7923506826375917 -1.492713811620602 16.42747039876209 202 100 78 1.3158745729828347 20 2587 23 1633 24 1590
2929 -4.5763060350491918 -1.2196430482995912 17.081214814410451 157 78 57 1.3972683914194719 20 339 24 1596 5 1642 27 1784 13 116 3 2120 1 2222 8 1396
2930 -3.5660323841234964 -1.2821576661527601 17.681034241773752 165 84 65 0.56635441407893561 20 2935 24 1598 22 1783
2933 -4.0326970447699955 -0.39807307680892007 11.767833024394335 161 75 54 1.6818031951478523 26 2147 27 1850 19 1418 23 1753
2934 -1.3474878017838776 -1.2660565582310068 21.144064235669056 113 61 44 1.8058918076724062 21 1823 26 2144 24 1647 16 1371
2936 -1.8366870790056455 -0.88930650035231629 18.014960149529344 121 62 48 2.4930221390246476 21 1845 27 1889 8 1367 22 1823 25 1652 9 1296 9 1278 11 807
2937 -4.5195353478966824 -0.29553148277901692 15.869489320919051 153 72 56 1.003837620590035 22 1911 24 1696 11 1077
2938 -0.85565070937100762 -0.47892791433205018 17.208921075956603 116 64 50 0.83849440734021918 20 2335 24 1702 27 1958
2939 -6.2518814797583584 -0.051773390169953457 15.546792746971487 231 140 108 1.8274328066663137 21 1971 24 1712 20 1278 11 1234
2941 -0.51956664985940737 -0.27885969202155869 13.842589834109116 114 62 48 1.2462339632816608 27 2015 6 1173
2942 -3.999092470452029 0.13166637780405593 11.959492470988421 171 88 63 1.3558090864991978 22 1967 23 1866 26 2296
2943 -3.3706757855770868 -0.068330256682940363 15.530647050497057 146 73 57 2.370765179722278 23 1847 24 1736 26 2275 27 1957 25 1754 17 918
2944 -4.1359824412684079 0.032832752952896699 17.835323328591691 152 77 58 2.2054499594966308 20 1637 24 1744 7 1568 1 2328
2945 1.8488652756595103 -0.018725772265377777 13.320017844753815 185 92 64 1.7799353433839897 20 2687 23 1807 27 2147 23 1828
2946 -3.7348976046514193 -0.21033140481315371 24.946083406426585 138 68 51 1.6362211401628421 24 1752 15 2165
2947 -2.9272700112331433 0.040927040482830364 17.335442550107704 140 70 48 1.9861516273255937 22 1978 23 1891 24 1761 14 890 15 2175 18 1227 17 920
2948 -0.48573219154549163 -0.050870880873807603 16.485203062082189 100 46 32 1.6233305252457815 23 1860 24 1766 27 2037 7 1378 18 1205 14 135
2949 -1.8821431523521217 0.073665617973887584 15.909860911354231 138 73 51 1.1500296681876316 23 1886 24 1769 18 1215
2950 -0.43250392473787935 -0.016896972974740063 17.879178001537721 110 53 37 1.723789408891846 21 1932 24 1770 22 1938 23 1869 26 2366 27 2043 25 1785 23 1894
2951 1.2607598968329174 0.14355603461968255 14.449130595929725 178 89 64 0.6058443000189806 20 2032 21 1914 27 2149
2952 -0.53850616356641878 0.046728957053908497 17.550709326182588 129 65 47 1.829900121789001 21 1941 23 1883 24 1784 22 1945 26 2370 27 2054 25 1793 9 1360
2953 -0.80308238161899026 0.17973766901197022 17.347728126395854 126 64 47 1.2046427654378218 21 1960 24 1801 9 1376 11 855
2957 -1.2189928565786103 0.29635138333904232 15.729875544034892 130 73 51 1.5428268671605629 23 1935 24 1818 26 2425
2960 -3.9788037673975638 0.60880399292876075 11.615944812976798 237 152 117 0.40181691186082852 22 2089 27 2100
2961 -1.7486090723366956 0.62727454048316011 15.056849838071544 171 91 70 1.4459260461292189 21 2037 26 2479 19 2437
2963 -1.2620817197473311 0.58956243181511869 16.50063806498396 155 78 59 1.0561463402649902 24 1859 26 2473
2965 -2.2606729918376693 0.78816314326465853 12.41404437134411 190 104 72 1.913565138047401 22 2115 26 2554 19 1854
2967 6.8178911918800758 0.59902297408901473 16.716714747713159 141 71 53 2.0515403384054292 20 640 25 1919 22 1994 13 739
2968 -4.29861447761136 0.85303049812434761 10.237218368699208 255 200 157 1.1921112600630459 22 2177 24 1907
2969 -4.0185537640294964 1.0787389139823562 15.50758616871669 247 173 137 2.2272789305039575 23 2080 24 1928
2970 1.2047577941478911 0.85724907335185596 14.563068569383438 204 104 78 0.030441406102807187 23 2025 27 2264
2971 6.0864127824473782 0.8334514561194637 22.834731343720158 190 102 81 1.9080178529998464 20 2440 24 1933
2973 4.0607322737039757 0.75483215544116877 15.825451662817846 197 110 87 1.4649350078725667 24 1949 25 1932 21 2002 16 1491 18 1288
2974 -3.5955965905694267 1.040527330991952 13.191282131468819 233 165 124 0.58231224670058301 24 1962 25 1936
2975 -4.1162430902929303 1.2712014912487648 20.395812079726561 241 155 109 0.56284967474243719 21 2172 25 1943
2977 -12.164366945057504 2.2764922641188905 17.029057515983947 254 197 129 0.50580055441581495 24 2025 15 2543
2979 -3.5853409643997112 1.4100308156633752 12.261411858982463 246 172 131 1.8325579442819147 22 2296 24 2051
2980 -3.6350175677842689 1.4516516161018056 10.979519300568505 251 169 128 1.2743336058295667 24 2077 20 2445 21 2294
2981 -4.3795018259455549 2.0175258365010391 14.282079552862927 240 159 116 1.7778745559761286 21 2358 24 2124 14 277
2982 -3.3775757484486753 2.2305319458397759 16.767164422635368 247 162 121 0.04376568588365444 23 2256 24 2126
2983 -3.2374485634079657 1.7530823980303156 11.317303382990147 242 158 115 2.2232656226639018 22 2404 24 2142
2984 -2.4201108859778433 2.2645462637820875 16.576991276005803 244 158 117 0.26858367856492016 21 2352 24 2144
2985 -0.30920353747137186 1.9196032516783275 14.343979019869188 238 139 104 1.8988802372694353 23 2235 24 2146 26 2808
2986 -2.8592487502363872 1.9918164520400965 12.790355427597435 247 168 131 0.78987169639146582 22 2426 24 2167
2988 -7.020448747451832 2.6373709667189726 14.482920206094136 248 190 127 0.991671184873814 23 2365 24 2176
2990 -2.9075799654457639 2.3240743333001745 14.280490129782894 247 164 128 1.6826722855917804 22 2472 24 2203 20 607
2991 -2.5295052985267938 2.3529795315655679 14.979399103887371 251 166 133 1.4975732313296 22 2450 24 2204 16 1694
2992 -5.8738997778232918 2.6070365734494412 13.319344401046328 253 199 138 0.42626781487485088 23 2389 24 2237
2993 -4.3254219803596827 2.1173747955754996 10.369381720660385 250 191 133 1.9146655387345957 22 2532 24 2247 19 28
2995 -4.5887357250845522 4.0412230568496703 18.567071541773775 237 144 98 0.67656374984894962 24 2380 25 2291
2996 -0.82248262016909179 2.5346405864496679 11.586756319399777 234 142 105 0.94284629880033677 24 2385 23 2462 25 2261
2997 -2.0964400503164513 3.0412211173083881 13.26595088871615 246 156 106 0.69361194330042086 21 2619 24 2407
2998 -2.0716129683558915 3.515633378453789 15.488764942709979 248 157 113 0.50875507539389764 21 2636 24 2417
2999 -2.265551231865401 3.0926642995068749 13.162428537143645 243 150 102 0.16701748089353918 21 2635 24 2425
3002 -7.8055283500863117 4.7039750444938653 16.818055580280049 244 192 120 1.4231819422594787 23 2589 24 2462
3005 -6.951669712054823 -6.5345281009459679 4.8869369396695435 171 96 80 2.3689238738039475 22 63 23 11 21 98 24 55 20 492 21 120 23 33 25 52
3007 -1.3537948863781692 -8.2460642894688636 14.318371420270282 148 78 60 2.0805881530580077 21 485 20 2128 23 468 26 568 23 445 19 937 5 765 3 626 16 455 13 1922 20 2198
3008 -2.9901742504932769 -7.0765143496038156 12.328059881109755 98 51 40 2.169863777810769 20 65 21 520 16 517 16 518 11 125
3009 3.7641301635408606 -7.660946930875344 13.048426102799464 101 80 73 2.2975901646418353 21 426 22 412 20 550 24 539 23 431 22 411
3010 3.7912416978121093 -7.1778250980411675 12.732176595559862 113 89 84 0.84552047588551549 21 464 22 457 24 610 23 489
3011 0.18429813538468159 -0.42526115740129022 16.213389114374689 149 73 54 2.3239995127132698 20 1210 21 1864 22 1860 23 1782 24 1703 23 1796 26 2294 24 1718 27 1995 25 1719 17 863
3012 0.48109818208915556 -2.4802845046612938 16.467919685239202 149 67 50 1.9864386411035231 20 409 22 1499 21 1483 23 1489 23 1510 24 1475 21 1505 26 1916 27 1708 25 1444 8 1032 8 1048 15 1672 13 113 16 1166 9 1044 10 596 17 717
3013 -4.6083790689844726 1.6280973944319956 11.084527423370975 99 82 64 1.4681578327942 22 2376 23 2232 20 20 24 2098 23 2234
3014 1.857995298679934 -8.2114622004074231 14.159576650511999 54 29 23 1.6778726189833508 21 432 24 506 20 1231 23 436 25 484 15 618 14 2747 22 424
3016 1.0488316035548497 -4.3924784998044677 16.682516579555784 223 120 94 2.1300943863171455 22 1172 20 790 21 1150 24 1184 25 1164 14 1204 13 1797 23 1160 17 568
3018 -5.6837903180517682 -0.67113768182089317 11.003599995968422 91 48 35 0.88432367362103048 21 1831 23 1690 22 1800 26 2031
3019 -2.0948403321980038 0.18337312303226799 21.91169409284733 133 69 53 1.6392768007347194 21 2005 20 2476 24 1808 22 2009 25 1810 14 1025 16 1507 18 1254
3020 -1.036205498139686 2.3249689099869655 15.753272071101398 250 158 121 1.7448918625505805 24 2187 21 2362 24 2195 19 69
3021 -5.1949998909177868 -6.4057527881781793 6.8431390277554653 182 92 74 1.8230399766778977 21 105 10 495
3022 -8.507107896403868 -6.5906105904324601 4.4943814490596656 0 0 0 0.70589753844014858 20 2339 22 252
3024 -4.1455311097412819 -5.8887230774503827 7.3759420857622615 221 113 86 1.4914551556718265 20 1031 25 216 21 177
3025 -5.2430576607494226 -3.4498349529905155 2.8789733850974693 193 100 81 0.5654267504639171 20 2713 24 273
3026 2.2167235722267793 -9.1988067425639901 12.912525201487792 193 92 69 1.2595046801152958 23 132 24 299 22 136 25 288 15 374 14 2041 26 336 13 965 18 203
3027 -6.3974604814495715 -4.9812624745514622 5.4773566053945153 210 109 85 1.40397240405594 20 562 24 301 9 614
3028 1.9584746100282784 -8.3125518068858426 12.002747707498822 188 85 61 0.89920689171905999 21 158 24 318 9 215
3029 -2.6703574475312739 -8.1101993771092733 12.108024569197696 199 110 87 1.2939121229763775 24 321 26 298
3032 -6.8174458722897011 -6.1304296148790947 8.3997840220141242 185 90 72 1.0800105772013071 21 534 24 383
3038 7.6898826230643458 -12.075752805249504 20.961393831736061 245 199 173 0.26382154019602966 24 625 5 2184
3039 -4.6527855218226675 -3.5716792728210032 6.8475213142307512 0 0 0 0.24180301342065752 20 2180 21 740
3040 4.886510654575746 -8.6167328636246125 15.357342055186804 223 164 152 1.5726843052057007 21 506 24 632 25 585
3041 4.3532567000513422 -8.4274821019948298 15.387407460387028 188 94 75 0.9248124499519339 24 639 26 865
3048 2.3625445127712115 -7.3455647942344475 17.604860650850092 221 117 93 1.9360898710855134 21 803 22 791 14 2022 16 649
3050 7.0552816871841051 -6.4492284659675203 15.679933633448274 100 63 46 1.3612664043974867 21 832 26 1354 25 951 20 342
3052 -9.4249911301009277 -5.4011738586424762 16.11344443933789 201 100 77 0.67289245591060476 20 138 24 1022 14 1460
3053 1.9173325155370007 -4.8994960676964929 15.091072921814904 223 114 90 1.8089485168534942 22 980 24 1040 13 2436 16 811 9 704 17 481
3055 3.4494737010240608 -5.8926757323941361 19.787843286057843 213 105 81 2.0418344622446822 21 1077 24 1130 22 1096 20 2260 26 1537
3058 -7.3662019798241136 -1.735145918744045 6.1919209591133884 232 140 107 1.2134284328781924 21 1447 24 1203
3061 -6.7029444194802235 -3.3469176355345636 14.795520057585666 187 93 70 2.3330275959701066 20 985 24 1242 26 1588 15 1709 16 1182
3062 -7.095659287838199 -1.352923450765307 5.4804047304074164 218 123 91 0.9824120433295036 20 2442 24 1276
3063 -3.5228842412437773 -3.1122783101039238 14.514258456782029 187 94 73 2.1614249207918315 20 67 24 1277 26 1674 26 1645 13 85 17 667
3064 6.1356368931157341 -3.0612118470887868 12.287666051283303 125 62 45 1.6797627803868753 22 1217 24 1321 23 1207
3067 0.59664019484475517 -2.5276429845411377 13.652080381871555 217 112 86 2.1777651514539742 22 1378 24 1378 26 1817 19 1875 11 315
3068 2.0117824283885741 -3.2858309607782799 19.35055294443929 204 101 79 1.5980834048210184 24 1447 19 2674 23 1475
3069 -6.9473558246350011 -1.8897814388565439 14.230194474352979 182 97 76 0.82054019502623377 21 1679 27 1586
3070 6.0522096856963907 -3.2340891749379961 19.791815503818132 170 88 74 2.3643771511965004 23 1504 24 1490
3071 5.925430812534894 -2.6011817386251526 17.68148411649058 169 87 69 1.9007087663652193 20 1768 24 1523
3072 3.5713713715330484 -1.9824177424337799 14.738867497087176 178 88 68 2.2019902211278528 22 1522 24 1532 26 2042
3075 2.7946788150702391 -1.6520897873210301 15.182361838979654 193 92 71 0.48283733117355765 24 1556 8 1077
3076 -4.9705419116189908 -0.5804103487083877 10.787150649290666 148 70 47 0.33432285827381569 20 515 24 1599
3077 -2.3258979947324114 -0.44481480492538084 10.270721919561577 151 74 57 0.098697598719585306 20 1634 24 1626
3078 -6.7368685356360087 -0.14058380148998351 8.8234731365140924 243 156 117 1.9923805857688515 22 1900 24 1643 15 2251 14 1153
3079 5.9371728627947116 -1.1241777258664898 15.234489740897212 156 77 61 1.1694443227225368 21 1678 24 1649 13 2279
3080 10.672901270764802 -1.3793299071609684 22.203147362948926 125 63 50 1.8574932089391123 25 1713 23 1727 15 1776 13 213
3084 -5.8304456218576215 0.6188823826278661 6.2203396097191748 243 169 108 2.3380227322361504 20 2230 24 1822
3085 -3.7240501812374145 0.52582666996766925 11.597989133544592 238 152 118 1.770731940092835 23 1970 24 1839 26 2433
3089 -6.5628698101873724 1.0105709534346399 12.320301320029836 246 175 128 0.68601606881054367 23 2082 24 1894
3090 -4.2689705955107593 0.98299254939451131 5.408893673371165 0 0 0 2.231510678520749 21 2264 22 2280
3091 -6.983743626627259 1.1624638440321615 9.2505958628310392 246 188 121 1.8180086561223776 21 2285 24 1953
3092 -4.0260001487766504 1.0737385399078694 6.5152966744902088 0 0 0 0.55845948932604639 20 2577 22 2299
3093 -5.1960763952279185 1.1693012532079385 9.3639988137217127 246 181 132 0.5288299406077821 24 2007 19 1866
3095 -3.5519662419145783 1.143484976048075 6.29205831127077 98 61 51 1.9459225047618016 20 2360 22 2330 21 2293
3096 -2.9145565148047758 1.3916593393714209 11.304039221576167 97 65 53 1.3620685954482745 23 2158 19 1330
3101 -5.128016831353416 2.0938679594624201 11.802144712027044 245 175 128 2.205468383025718 23 2332 24 2165 19 1834
3102 -2.2419609708031341 2.4285048820807913 15.555251823231634 242 152 116 1.3531902796386936 24 2200 25 2145
3103 -2.794190607856875 1.7181968914039607 9.326309088031131 248 161 122 0.07230404194826634 20 2115 24 2211
3104 2.8752189866507165 1.4928996612977623 6.5509577716116185 0 0 0 0.91189940120967927 21 2255 23 2301
3105 -3.077613380910428 3.3258471216921031 16.553796355165527 247 154 112 2.6487185685444299 22 2571 24 2343 20 2610 21 2578 14 99
3106 -7.4821882104696673 2.7926127617213554 8.658997766985955 235 146 90 0.73342123606653686 23 2545 24 2373
3107 3.6853603207571961 3.4041085123882939 15.763458143180996 162 90 71 0.97679409938131778 21 2520 24 2429
3111 -5.1044837339156137 4.9606738523297951 16.621265710307213 243 162 101 1.3405052757324012 23 2643 24 2526
3114 3.6042255690647638 -6.0150136596680213 13.685767822430449 108 55 45 1.5348606521013071 21 725 22 717 20 2844 26 1110 27 997
3115 -5.2962694783063355 0.86889108727862641 14.433083709710841 243 164 126 1.4777333050973607 22 2156 26 2441 20 641 24 1888
3117 -1.7591539798629521 -10.918325370749898 12.93254917001709 202 106 81 0.032465563692144234 26 6 17 85
3118 0.9800516145528505 -12.698387366041906 14.212601596813926 177 93 73 1.1332034324230083 24 65 26 8 27 9
3121 -2.2360324985077287 -8.6422420457808595 10.777693347562993 199 110 88 1.8717797094211224 22 17 26 15 20 959 17 132 21 29
3122 0.4282489787328474 -10.023013426440922 11.980998936680365 182 97 73 2.1333244703973255 24 111 26 19 27 25 15 235
3123 -7.2302030598108162 -7.9258490451241883 8.3328635219276581 170 84 68 1.334297329952375 19 764 16 422 25 150 17 219
3124 2.1437304119783076 -8.7308872391418504 10.379104744563463 184 114 99 0.22970749728434481 24 131 9 104
3125 -5.3361230440095815 -6.4954674552659837 7.7057472785448269 159 84 67 0.48682051083257638 26 32 22 174
3131 0.78521864051181356 -10.228805856386328 12.284405842805571 181 94 72 1.8954517859172491 24 115 26 50 16 118 13 311
3134 -2.8390919554969711 -9.4911122372107837 12.102889265752049 185 90 72 2.0105375995526633 21 87 26 78 22 74 27 30 25 173 8 154 16 263 17 143 17 131
3135 -6.4593205920565175 -6.0851907776737502 6.6416848178533758 159 87 74 0.9469791960464089 22 265 26 84
3137 -4.4514359492168047 -8.9384536669948584 11.326205489582238 190 94 72 2.307411887417214 22 122 26 86 5 2861
3139 -2.8302479060524552 -8.8632578859604845 11.520817499355468 185 97 79 2.1085211167615507 23 70 26 94 27 42 22 79 25 181 16 298 18 202
3141 -7.1236931413464593 -8.3919043953028112 9.83351833155991 165 83 66 1.2767068142711604 23 184 7 106
3143 -2.5506161198366475 -9.1788522153374323 12.212316223531319 206 116 92 1.8044161432872368 22 124 24 195 26 127 20 936 3 366
3144 -6.5748201366038348 -5.5979725664425697 6.0797531491987327 147 80 63 2.8452057285318713 21 408 26 131
3147 2.4784109850053238 -6.1519181620006336 8.1973658612400602 114 59 50 1.11205632045893 21 18 26 160
3148 0.72779080730626999 -8.3589969753731825 11.202064751376021 197 108 83 2.1752135089303377 22 47 26 163 25 224 21 62
3149 -3.3378171549369289 -8.2575839289349044 11.233155609109305 184 96 78 0.54292382002712403 22 168 27 79
3154 -6.0469041059452255 -6.6813429464669776 8.787600221973598 171 79 57 1.8440849984808572 21 397 22 327 26 205 27 98
3155 0.47811347445769636 -8.5576589952143873 11.876098238429979 233 133 107 2.1656652383557016 22 111 26 229 23 92
3156 -8.4402884604896062 -6.3816866983354421 6.3997762957107343 144 74 59 0.72881175361607609 23 367 26 236
3157 0.08324354639272627 -10.391583625787938 14.022030980639395 213 114 88 1.2706649236685692 21 100 26 237
3158 4.2325775373324426 -12.759145880733131 15.471116689663749 129 61 43 1.5200193027612352 26 250 22 11 27 255
3160 -8.03081459160361 -5.6155378913792902 5.3901123341685615 112 57 46 1.9681536084725746 23 412 26 255
3161 -3.463490223827443 -11.37001062490304 15.515236534519378 200 113 86 1.0763245433414146 23 175 8 203
3164 -6.0136333400489512 -7.5278175760921293 10.333058183475861 211 116 86 1.9601389013536916 23 301 26 269 27 142 8 486 7 113 9 460 10 524
3168 -0.10725173653957774 -8.5744703315597732 12.247783784438923 250 241 204 1.1879147353330766 19 460 20 119 22 153 23 131 15 480 14 144 12 930
3169 -3.9777266161358802 -8.3783976711202754 12.168315993059219 199 106 81 2.0799485785075364 21 328 26 286 20 2955 27 185 25 293
3173 -7.8832725009384816 -6.1050336573641415 7.0882568844339024 155 84 67 2.7636314470129637 26 304 25 301
3174 0.36573313794739393 -8.4309112722898032 12.303823467269869 200 96 74 0.25953391195219883 22 176 26 305
3177 -0.20356359334810104 -8.8262629146000968 12.980130862389919 218 124 96 1.5509481402863998 21 212 26 319 14 1778 15 534 12 2939
3181 -2.103156676311376 -10.443254633662866 14.992549426667933 92 69 63 1.6581986776560309 2 78 22 221 19 123 5 2953
3186 -1.3873359688038538 -9.2515838987205399 13.968640370792125 211 116 92 1.6253507781158525 22 266 20 451 24 343 27 303 19 653 8 227 14 2783 13 340 3 428
3188 -6.6800952499896962 -4.9106505211233111 6.4162231237169411 159 82 66 1.5132888553819761 22 527 26 368 8 735
3189 1.5421894167549779 -9.5325128627978177 13.855068219995145 200 102 74 1.9417895561782388 21 186 26 376 15 423 14 2666 13 1911
3190 4.5750968865012567 -8.5382974667280305 11.325583701962664 84 40 34 0.2507735122393 21 90 26 377
3193 -0.21505199302045525 -8.6045923100840529 13.259055068585429 207 114 88 2.4297397173208326 21 275 26 389 14 2408
3195 -4.1868301030771313 -7.7846796820563871 12.319439925281927 191 101 81 1.4345401089916123 22 422 26 394 15 791 14 2592 13 837
3196 -4.9511417165740799 -7.2320163497293297 11.188902418779483 231 133 109 1.7251738423051832 2 468 1 549
3199 1.2223389676814849 -9.3440558895099688 14.02357151221636 241 149 126 1.5219430838714842 21 226 22 239 26 415 27 379 19 2604
3202 3.8020881517809553 -7.0918730274856214 10.123351984408748 121 67 59 1.004387457396297 22 157 26 422 23 162
3203 -1.9749248938885637 -7.8082785421299228 12.632718897553104 198 102 80 1.1842911228331889 26 429 27 346 8 331
3204 2.2667786346296488 -10.764170457642336 15.680396751009765 183 88 66 0.49323590689925434 24 332 26 432
3205 4.3594791616314428 -9.2752223477169053 12.942612486021741 138 72 55 0.77491679615942122 23 178 26 439
3208 -2.4038496384372507 -8.1231890022924151 13.279490774163616 191 92 71 0.85455507007309439 24 421 26 450 3 638
3210 -3.0903459282524364 -8.1955431040052655 13.117010706349497 217 115 90 1.8916525312981234 21 431 27 340 7 5
3212 -3.7310211197572651 -8.0507078246556425 13.19589136078246 212 112 86 2.5368549429857525 2 344 26 474 27 376
3213 -7.3581777294003547 -4.5243120132507686 5.8969030838721785 0 0 0 0.19393532979078049 22 639 24 497
3214 -6.4739972155004786 -5.5699723904152476 8.7049631074471208 178 92 78 1.8366269052830659 23 559 26 481 27 337
3215 -2.6019773608352819 -9.04346289070787 14.603822995714918 201 102 81 2.3624950754302394 2 231 20 415 21 419 27 398 5 30 22 402
3216 -3.0801906139574431 -7.4130547581097304 12.502487813473911 216 122 96 2.6250078217636417 26 500 20 2694 5 213 15 797 21 475 13 1720 18 359 17 299
3217 -2.9389777013660412 -8.7577057154149749 14.555084934380842 0 0 0 1.8063717999935502 2 295 20 2359 24 436
3218 -1.6397000822833323 -6.1798879602032528 10.970916277734441 206 111 88 1.1860174059771247 23 416 26 507 27 418
3219 3.3012926237278752 -8.4688550215052771 12.803725429363013 156 79 62 1.4293118041183899 23 253 26 510 21 237 25 384
3220 -6.9967533041510936 -4.3565045166912597 5.9099822095630206 150 80 65 1.8954852128233282 24 520 26 512
3225 -3.9976684831481837 -6.4893150633586165 11.349887803539788 197 107 87 1.2266229425450235 20 582 26 533 5 1188
3226 -2.294184608158131 -8.8346290046021796 14.834487796309592 216 115 92 1.6348323841107857 2 257 22 442 21 463 8 347 17 282
3227 2.7367679741512911 -8.1985554286453439 13.149245314087818 175 92 71 1.5274986384862224 21 317 27 534 19 1227
3228 -4.7423982264042657 -6.5931501984127552 11.473842741511723 194 108 87 0.30705794874129133 20 307 26 545
3229 -6.438357358283926 -6.3988436942051168 10.584325936425289 204 110 87 1.7876052301110765 23 577 26 549 27 391 5 1884 15 1071 2 839 13 1079 7 321 3 1200
3230 -3.5934068423380836 -7.8766541093153446 13.543147170415118 215 117 91 2.5045197206049763 2 399 26 552 27 447
3231 -7.6109477503790837 -5.0751994373963258 7.5227890234592252 156 84 67 1.9624124367567093 21 745 26 555
3235 -0.50633635263594712 -7.6508420717980536 13.44229052289457 252 184 151 2.5361976375865538 21 469 22 456 23 455 26 594 19 2206 22 435 23 429
3239 -4.4485549635067123 -7.2509321070230612 13.104197801793614 208 106 84 1.8561221948842379 22 581 26 606 5 2595
3240 -5.3010820724975396 -6.9876893080781253 12.497317376412875 187 100 77 1.1317672126897238 2 650 23 586 26 613 6 375 1 840
3243 -2.8901809705773287 -8.1749304516102832 14.508072095529524 0 0 0 1.1640198443619723 2 378 21 542 22 515
3244 4.5006713803515304 -7.5640236123793807 11.696245504560681 116 61 48 2.1808815092815954 21 288 26 625 25 459
3245 -1.4283672176709181 -6.9754825992743559 12.808385179874067 223 126 104 2.4486960558250375 24 537 26 629 25 510
3247 -6.7247220366474147 -5.0126294944161671 8.5860104741435226 160 80 65 1.1375359506193075 21 749 26 634
3249 -7.0387520788238938 -5.8450192542010351 10.165860043470616 198 100 70 0.9513656608178197 22 683 26 646 16 752
3250 5.3967299493466543 -7.880446584333229 11.932585486553478 69 36 31 1.3201596505817879 21 289 26 653
3254 -4.1219325135699796 -6.9699616774943491 13.147253551812151 205 107 78 0.64488809365421129 24 603 26 677 27 558
3256 4.936824963723577 -8.2560786704706306 13.053753341577808 114 57 44 1.2435828068960761 23 365 26 689 25 474
3258 -4.9168336256273539 -6.3252045314582208 12.072102798436232 180 92 76 1.0653655607841932 24 630 26 700 14 1438
3260 -2.3502689601931213 -4.3381989442299993 9.0241098093461289 58 36 32 1.6905614987848949 23 584 19 2503
3262 4.0795353984902967 -8.9128506679902575 15.061920379650084 190 108 90 2.459023594629778 24 522 26 722 27 684 25 512 13 397 17 213
3264 2.6196500019277389 -8.2487394032447803 14.471384319949923 198 105 73 2.3410700454188018 24 532 26 726 21 453 14 1177 16 385 14 217
3265 -4.8765768636578581 -6.1332884175772033 11.916216340281155 174 93 73 1.5660827716027548 22 655 25 610 14 476
3268 -6.9106038236961815 -4.132144440374188 7.2373030001668717 164 87 72 0.53506820601285199 26 739 25 675
3269 -5.8171853500601021 -5.6797613556901894 11.151229170006062 199 105 82 2.2486728984679232 22 711 26 754 25 645 15 1202 7 384
3270 2.248957999283562 -7.4683926938866589 13.596694746138434 213 123 103 1.843426000900027 21 499 26 757 20 1689 19 2797 14 749 13 592
3272 5.9219440469605553 -8.5460164704737274 13.647729977750631 115 61 49 1.1699432993628469 21 365 26 764
3275 2.657319295349803 -5.9453492355512472 11.078961133787727 162 84 62 2.2070466480730109 21 500 23 483 26 771 19 1355 22 462
3278 -1.1337862220636572 -7.2504718686235679 14.321314659073316 213 117 93 1.7834255501127483 26 780 27 655 25 608 24 641 8 458 14 1533
3280 2.080110350269365 -7.0215392587857464 13.287336805097052 208 108 90 1.5168030139529376 21 530 26 789 20 2298 25 606 15 722
3281 -7.5221202057687533 -6.2498958843510923 12.063584365149657 192 98 77 1.1392264203659452 20 879 3 1373 7 506
3285 -7.1909570340336249 -5.0115627236827827 9.7309517044754479 185 94 73 0.49025263742650549 23 784 26 808
3286 -2.5635578064110693 -3.8454998846943131 8.7122766044220299 0 0 0 1.4140109750122796 20 1486 22 672
3288 -8.3864273754368934 -4.4143366331689133 7.6965079172725765 157 87 70 1.730747642944765 20 1737 26 821
3292 4.044620465688701 -8.7149096114692757 15.746962435382223 167 86 68 1.7903770023513477 20 144 26 834 21 515 27 747 13 74 16 392
3293 3.6950654335157838 -5.6781898018684638 10.597232995488783 252 236 201 2.4569233624754476 23 503 26 855
3294 4.4392761358200579 -6.15380930326672 11.178857108826872 146 104 88 1.3348482255800562 23 523 26 859
3296 -1.340949583584407 -7.1849960232716032 15.058127470394979 204 114 92 1.7943339684404211 26 873 25 671 14 1443
3297 -4.5181281148051706 -5.8622338076976623 12.803924887880349 204 110 85 0.70180313766645563 20 2389 26 878 14 2147
3298 4.4519451582421521 -6.3221829829299425 11.529099474381319 104 57 46 2.2412110212130369 23 522 26 881 8 257 21 489
3300 -4.2871657207768905 -5.2159763699357304 11.666193882110605 190 102 79 1.9690805310633144 23 746 26 891 7 361
3301 3.708624135423042 -8.0045359627340265 15.384151844102792 181 91 70 1.5749398231521905 21 590 22 560 26 903 20 753 27 784 7 11 14 628
3302 -6.7199611889633299 -3.2184654236926304 6.22402239688431 148 80 66 2.1637402954214897 22 922 26 906 21 964 9 948
3305 -6.7327932902870113 -5.1116620704233791 11.437240369302565 193 103 84 1.6320039465582141 2 1166 23 874 27 731 1 1807
3306 -6.6861372447940148 -4.770120259386502 10.590115120195598 54 34 30 1.8240498730767065 20 435 22 907 19 2923 5 1448 23 873 8 865 10 830
3307 -7.0026043139082761 -4.8500567529814811 10.55438625300553 181 86 71 0.52033462040989842 20 1233 26 921
3308 -2.2329192779820453 -6.9438044644803263 15.346656868192577 173 90 72 1.0221232656855148 20 2517 23 737 16 669
3310 -7.3691406753275412 -3.6235060560027841 7.3129224995133137 163 84 68 1.8220490853623776 26 927 27 718 25 806
3311 -0.78231258255527747 -4.8078354860664136 11.310214602694964 207 113 88 1.2873659923516461 20 1360 26 928
3316 -7.8307375975486853 -4.9595501233394801 11.214495415574371 185 93 74 0.41250284583470209 23 925 25 839
3317 6.1898128978872116 -7.5459722101373847 13.804552165303019 178 139 131 2.3709050179521092 21 558 23 599 26 953 19 1542 22 542
3318 -7.0883341670658133 -4.7660322743572161 10.816653422947478 181 81 65 0.40378153485635615 23 904 26 954
3319 -1.5128072151026806 -5.9075163180222958 13.851543649617406 201 107 81 0.10120905821899247 2 624 27 808
3321 -6.917677512520048 -5.752058774054488 13.043284707154273 192 102 77 1.0992388982063994 21 932 27 760 19 2652
3322 -1.8707482458538645 -6.0007016563662328 13.991674393633598 200 106 79 2.0211007146986337 23 758 26 967 14 2840
3323 -0.58606267728905415 -5.6082538750802122 13.158100318439988 222 132 112 2.4710343702772404 20 61 26 968 27 810 25 783 22 751 23 745 26 989
3324 5.8635443618773948 -6.9123362061208136 12.931812886146805 163 123 115 1.9851714291919322 21 568 23 606 26 972 22 572 9 351 22 567
3325 -3.7997897557540345 -7.3883712215958264 16.640113748642367 166 82 65 1.7128632114147575 21 823 8 634 10 490
3328 -4.5642703404148 -5.9747383251887314 14.303834319785583 176 94 76 1.9423506269705064 22 871 26 988 8 728 7 412 18 592
3332 -7.6586144003557139 -3.6488364322325126 7.9806137996596949 169 90 72 0.064916177687822499 22 1001 26 1002
3333 -11.20357482850237 -5.2870064148527085 10.762791267191021 174 93 77 0.94616819891042292 24 850 26 1003
3335 -7.8577837356313767 -5.4333243887868621 12.71586927643555 193 101 79 1.7220307947748261 26 1010 27 801 25 857 16 913 14 2540
3336 5.2019068506719552 -7.4674291883448944 15.126981459738463 140 74 60 0.35896838225163341 26 1029 13 511
3338 5.2664077335123585 -6.7726437031453006 13.776924630501606 124 71 58 1.8376010586794438 23 668 24 764 26 1047 21 648
3340 -7.6038577244066827 -3.728693132476232 8.8859243761543993 163 80 60 1.8760726487814106 26 1058 13 1287 15 1566 22 1041
3341 -2.0272238966545877 -3.6179746883009352 9.9830637551068673 0 0 0 1.9150988814044778 20 1308 22 873
3345 -2.0013782139492298 -5.9533732202723204 15.020466474564698 178 89 71 1.268229280614678 22 864 23 852 24 842 26 1084 27 905
3346 -0.74421496915674279 -6.3317552089722478 15.923527969490628 219 121 91 0.85106028925792321 22 849 26 1106 7 278
3348 -1.6349463527997097 -5.6019942310943716 14.482697330191396 201 108 84 1.9312271207934186 24 865 26 1113 20 2868 15 1179
3349 5.5511138554811073 -7.2220271536911733 15.609069158559883 131 67 55 1.7537293315102538 24 813 26 1116 13 792 16 514 15 792
3350 6.553585711608525 -7.4678170663128727 15.271944149787458 89 46 40 1.3922307327929575 24 791 26 1098
3352 -6.1319500149496191 -4.8372810100853547 12.933681462703419 154 76 62 1.7796566739477058 20 410 3 1592 9 863
3357 -5.6246279854559091 -5.6585085281984266 15.239765572765037 178 92 73 1.3096715445280356 24 910 26 1151 25 913 20 1825
3360 -4.7828086252603006 -5.1511198241312872 14.312169817435938 174 88 71 2.2260492311816753 22 989 26 1176 5 2178 6 622
3364 -5.5240133820069008 -4.1214909116234058 11.698418052194432 180 92 71 2.5675141219129118 26 1193 5 1548 22 1023
3365 -6.1250091931769548 -4.6476099969221334 13.049741522828864 176 86 66 0.99683699783726432 22 1043 26 1194 27 958 2 1224
3366 4.3169370082322969 -6.5624027265880542 15.507325846370023 164 87 71 1.5715704394758749 24 854 26 1198
3369 -3.2212995128810746 -5.2124395073433147 14.847352157441694 173 92 73 0.78788559552229942 22 967 26 1212 27 1035 19 1805 15 1350
3370 -6.5087208563649952 -3.1703005241001421 9.1375404106130969 176 87 68 1.9065012434973216 26 1215 14 1826 15 1600 16 1075 20 366 17 609
3374 2.756825525153956 -4.3263423856313201 11.341122502665343 194 100 79 0.35418240706241044 23 831 26 1235
3376 -6.7341094375445181 -4.685160863945744 13.812284658620912 182 94 72 1.6231513238947108 21 1115 26 1257
3378 -3.6234127171040345 -5.8797521449540282 16.913590166388605 171 87 70 1.682750572462866 24 969 26 1261 19 455 16 866
3380 1.5426035501280475 -6.1229596532932806 16.455644984527055 213 111 84 1.9117497144545341 24 922 26 1264 27 1103
3381 -6.5123742003861222 -3.3602764530314291 10.209852967591145 196 92 74 0.93683822080784362 23 1078 26 1267
3389 -1.6511022923020453 -5.6737485156157037 16.871117120589144 158 78 63 1.5708485827891907 2 862 22 994 26 1298 27 1119 6 552 28 1278
3391 -6.9245250447959341 -3.8393364526050111 12.115609890803647 200 104 79 2.5009667148541004 21 1208 26 1300 19 644 8 1039 14 14 22 1182
3392 1.6920945204114344 -5.9277243222329314 16.465655519411968 220 124 96 1.7439726071682091 22 932 24 947 27 1144 13 348
3394 -7.371465414614474 -3.0158457022269944 9.511412776558112 158 78 62 1.0506629109660262 23 1175 26 1318
3396 5.3872346424050281 -5.9367628397820953 14.83060053280238 128 70 58 2.9320475123857128 22 846 26 1326 14 2425
3398 -1.6881246425076923 -6.1936912375051385 18.170990858302467 160 85 70 0.68112210338895152 22 997 8 737 27 1120
3400 -5.1251607203890623 -4.3151719787878093 14.090054743636339 186 94 73 0.84614899186412762 22 1150 26 1341
3401 -6.1137993318931203 -3.7490679926306223 12.306549201545595 191 100 76 1.9304465824511556 20 1693 26 1345
3402 -1.8377783223676705 -5.7492480737890039 17.458820732635914 162 84 67 1.9580087813793128 21 1022 23 1021 20 635 25 1005 9 752
3404 -0.89855672401278852 -5.4811394818172285 16.744997330247443 165 79 60 1.7992835060373791 21 1015 22 1014 27 1148 27 1163 23 1000 15 1315 13 2784 16 853 6 548
3405 -2.0771135341365063 -4.7525307942651027 15.433312504884839 185 104 84 2.0392681255671645 21 1068 26 1364 14 119 13 587 25 1048 5 842 18 730
3406 -1.9934862952955239 -5.1434045767489502 16.367392945790137 170 91 75 2.1956494790259047 21 1069 26 1369 27 1162 5 2862 13 2477 7 496 3 1337 17 520 4 698 25 1030
3407 -7.5263268936715235 -3.3954380772805139 11.292109785728465 183 93 71 1.4978755940443662 22 1272 26 1373 27 1106 5 1096 9 1032 24 1111
3410 -6.23839528879589 -3.4239462657049327 12.172447086248178 186 99 76 1.9818532708510759 22 1249 23 1187 26 1389 16 1107 7 897 9 1022
3411 -0.5535573101207778 -4.65468007817746 15.078044493331848 180 91 70 1.7425465126516038 2 902 24 1054 26 1391 27 1194 16 889 18 709
3413 5.0767380537623348 -5.4214881412863773 14.9146288208879 154 88 76 0.71512349298508238 21 911 26 1405 15 1034
3415 -5.4137457939718354 -4.1326377263595546 14.577858390111679 177 89 68 1.6453894722116924 27 1176 16 1041 3 1690 28 1172 29 687
3417 -6.8718822739430809 -3.6122961209768758 13.236579613545411 191 97 74 1.2229870498947455 24 1156 26 1430
3418 -6.3257404438519291 -3.793978848225338 13.7375825503548 176 87 67 2.2342800653941421 26 1431 8 1034 20 1223 25 1126 14 2290 27 1178 9 994 9 995 28 1119 17 632 29 568
3421 -1.6387288870800467 -4.8065837860190648 16.527856781726314 153 82 67 1.7924215920665603 22 1127 26 1448 27 1230 25 1073
3422 5.2570035252309113 -5.4701503508441212 15.611330076601744 169 95 83 1.5614741250578368 21 939 26 1454 19 2420
3424 -6.4746688131401484 -3.5161557045003788 13.362076631306923 184 95 70 2.2886182030683169 22 1313 23 1265 26 1461 27 1205 15 1651 2 1467
3425 6.6233511255249811 -6.2631660445916246 17.234374115410937 128 71 59 1.967356555333311 21 937 27 1285 13 699 17 439
3428 -4.9093320621666683 -4.0871551234542904 15.549285253520296 165 85 67 0.20272824655957636 22 1270 26 1484
3429 -6.7831479708327374 -2.0691855805140738 8.6852393515777866 180 96 77 0.81770305580941316 23 1351 27 1233
3430 -4.1144644004562734 -4.0987776195166399 15.714226720351126 161 83 66 2.009994074253675 20 256 26 1491 25 1152 17 611
3432 1.343885918919985 -4.5476546767696826 15.272089176343851 214 117 88 1.9454803865453809 20 500 22 1056 21 1035 25 1095 15 1334 13 2733 16 874 18 733
3433 3.5796169299377634 -3.4125452482301593 11.29002611940599 157 84 73 1.1612080953998873 23 1001 8 676
3435 1.0046640321058498 -2.8444312223865329 10.46881578100812 218 119 94 1.6233869479526783 21 1030 26 1499 23 1034
3437 -2.0788303858832271 -3.9732381230685032 14.870028583923119 165 84 64 2.2176106614425848 23 1155 26 1503 19 931 13 2530 16 988
3442 -7.3847509157917992 -3.0078202661949756 12.582845525140973 188 94 69 2.1785938953613906 21 1427 27 1263 8 1201 13 2201 15 1758 14 964
3444 -6.4745921491209257 -3.0881482346818623 12.614207285770856 187 95 72 1.5951258400321531 22 1369 26 1524 27 1247 19 2889 13 2094
3445 -6.6020965359994079 -2.6157460624135518 10.724502811019272 182 88 62 1.2507110180965002 25 1183 15 1757 14 390 16 1192 22 1373
3452 -6.9819585696175803 -2.1532460264562103 9.511961724409348 167 85 67 0.25121447744607089 23 1374 26 1555
3453 -5.4107585165488805 -3.5849478855945867 14.79270618126507 159 78 60 2.2796841097120324 21 1343 26 1557 25 1184 19 2014 15 1636 14 157 6 886 9 1005 3 1803 8 1052 18 844 17 659
3455 0.25829413984258465 -4.049913203297848 15.812033620174022 226 122 91 1.2325606166369494 22 1196 23 1172 15 1450 21 1176
3456 -3.4474312144456474 -4.1505282552922109 16.820356863249724 182 93 70 1.7721296924165217 21 1289 26 1562 8 955 15 1560 13 2280 3 1587 28 1471
3459 -6.4093624513802503 -3.0484348902948515 13.330824868008184 188 95 70 2.5144930148566451 21 1403 26 1572 14 1225 13 2185 7 1048 9 1097
3460 -4.5424765802838696 -4.2452437756436456 17.563060200781702 166 87 65 2.0776367552208739 22 1332 23 1288 26 1574 8 998 15 1585 5 2632 19 1874 9 981 18 836 17 634
3462 8.0210578608940768 -6.3216762423419022 18.813186452713072 118 64 50 2.0967732901329637 21 1012 27 1400 23 1052
3463 -6.2116542698989816 -3.0581111696316055 13.388515814487544 186 94 68 1.8224589718795485 26 1579 22 1388 27 1296 8 1154
3465 6.0063580464592397 -4.9438324211683957 15.878768949119101 137 69 56 1.3287315823450003 24 1155 26 1587 13 2395
3469 -2.3535373803851076 -4.1436365342564754 17.457592894701687 164 83 65 2.0698620609142635 23 1268 26 1605 27 1406 5 513 4 810
3470 -2.2709519413462145 -4.1847310334097783 17.572566686322244 161 82 63 1.7169056032831946 21 1290 15 1553 13 2801 16 1044 26 1606
3471 3.4792207972565858 -4.436750568623288 15.887043870248588 195 96 72 2.2142493131320049 20 2754 23 1105 26 1615 15 1317
3472 4.0501738219585155 -4.2914945327547676 15.722580819224463 197 97 74 1.6067019038110764 20 2247 23 1143 27 1472 16 878 17 529
3473 -2.4989506540162076 -4.1204535336298944 17.384854379569308 162 83 64 0.21874841656746047 2 1116 26 1619
3474 4.9989921733225353 -4.1427763603783223 13.980449785830979 158 88 71 2.2021352216665484 24 1163 26 1624
3475 -6.7232894888922372 -2.6984311868285351 12.915128818180161 187 93 70 1.9597777254522211 21 1466 22 1456 20 2755 27 1345 19 2562 5 1517 8 1213
3476 -1.3339549337575347 -4.2551842262390451 18.182588215574107 161 84 64 1.4803140086410036 21 1281 15 1543
3478 2.5580223761734815 -3.523390783993579 13.669621814077209 209 109 85 1.9598682066861994 23 1150 26 1641 21 1126 27 1461
3479 -8.6530359146496512 -3.6198511254156975 16.212836877538312 178 91 64 0.99638338574295526 21 1470 22 1467 3 1923
3480 2.1707927517764598 -4.3098409106430173 16.76458370540221 216 117 92 0.92131098988349924 22 1201 23 1189 26 1653 21 1160 27 1444 14 1836
3481 -1.9704114232475511 -4.2372197711959716 18.358213731441332 155 76 57 0.99126517538558134 26 1654 7 694 21 1317 25 1235
3482 3.888180743651636 -4.3844951839183919 16.28243453876561 198 99 75 1.4970624427892656 24 1201 26 1659 27 1471
3483 4.9941773113406853 -4.2048407633144382 14.971234327345567 156 83 69 1.5201326123792012 23 1115 26 1660 15 1290
3484 -7.0215394568705047 -1.3138160615063925 7.4451725840377554 193 106 83 0.029536353525416163 22 1564 19 404
3485 -6.5974527353088677 -2.0894483095143617 10.733007496842935 175 90 69 1.6541087433533992 20 2039 27 1375 19 547
3488 0.48571890315196165 -4.0842612142328703 17.113656560104342 212 122 98 2.2191755102123607 23 1237 26 1680 4 739
3489 -3.5470092199141132 -3.3137365068942413 16.620808597448626 190 91 69 2.098406885302798 2 1290 22 1421 5 1245 24 1341 8 1049 13 530 1 1570
3490 -7.1172812291173235 -2.2751408820775074 12.241722140772691 187 96 73 1.5920618751653965 5 2082 15 1886 3 2224 27 1412 17 769
3491 -4.6113608563142279 -3.1208356192278859 15.31167618666858 173 90 72 1.7889505861909509 21 1429 22 1420 26 1688 8 1115 15 1699 6 938 2 1377
3492 -3.2473473003185767 -3.3972800155158089 17.209883789777482 174 91 73 1.7224010230545053 21 1428 20 2507 6 874 17 687 28 1670 29 1375 3 1688
3493 6.4970465666311243 -4.5577032447887866 16.097515629258591 125 70 57 1.5154841197442803 23 1152 26 1702 13 1620
3494 -6.5041438256162953 -2.7265465240056481 14.201568659615047 186 91 70 1.6841012147001924 22 1493 26 1703 27 1420 8 1221 14 244 13 650 6 1055
3495 5.9845953160799263 -4.8289262617969886 17.663589218918375 154 84 66 1.9497713268655761 23 1180 26 1706
3497 -4.5679202913358674 -3.4094897320677888 17.052156000618403 179 91 71 2.7941337767711731 22 1451 26 1712
3500 4.9427264558031245 -3.869320447167353 14.955097177321919 159 89 72 1.4310965999690526 22 1190 26 1723 15 1328 5 853
3502 4.2407689295126634 -4.0564442438652115 16.22587672752665 196 99 77 1.9107188639525061 24 1240 26 1730 27 1538 19 2130 14 2311 17 564
3503 6.7709715804397561 -5.4482249530562932 20.67615481421371 163 92 77 1.0603160658477888 23 1228 26 1731
3505 1.6414681120002477 -2.057436798275853 9.5958855892649115 214 126 99 1.9214951732304537 26 1734 19 2198
3506 -6.7817992964189413 -1.8861011039181659 11.220013556786924 168 79 57 1.7636229830660326 21 1572 26 1738 15 1914
3507 -2.6887022935089901 -3.2177372307933276 16.606297353317277 177 91 72 1.4838116554009795 24 1358 26 1741 19 1565 28 1709
3508 0.83109165429532872 -3.9359063955272204 17.361631163526024 216 113 86 1.4581356288795475 22 1299 13 2368
3512 3.9011654979808723 -3.6174312417054661 16.08776250890206 192 100 76 2.3492148374579473 20 2117 21 1254 22 1277 15 1442 16 969
3514 4.2396743207978318 -3.7922197500619679 16.238400542864273 200 106 83 1.585402041071611 21 1244 26 1759 27 1593 15 1405 14 2885
3517 -5.9181243486137971 -2.3139500558776493 13.997982772565072 167 83 61 0.87908962785703326 21 1560 26 1768
3518 -6.7044218076414417 -1.7358607076850416 11.081163355579596 158 79 58 2.2430765742927892 22 1568 26 1773 25 1389
3520 5.7551562752112906 -4.0813788552286558 17.085862430248607 155 84 72 2.0097522089186466 23 1272 26 1786
3521 -2.752919403443586 -3.1358226941980676 17.451872363985455 180 96 72 1.600431162731097 21 1456 26 1788 23 1448 27 1562 20 1322 5 1581 14 2960 11 663
3522 2.3694322845195632 -3.1687396071810134 15.088392340342214 197 102 80 1.3769416439015332 21 1295 23 1303 26 1789 20 2937 27 1608 25 1325 15 1506
3525 2.8744640487567437 -3.6733072330056316 17.420382139454802 193 98 75 1.3902956627577836 23 1337 26 1795
3530 -5.9027876638493106 -1.9632121010652759 13.661312381728637 179 92 69 0.059830447099706086 22 1596 27 1567
3532 -4.602291574575065 -3.236803802752052 19.44421315613922 169 85 68 0.62646814045994892 24 1421 26 1815 28 1708
3534 -3.6572889536893372 -2.7595113816607988 17.264751608046474 164 85 64 1.6948239836612715 22 1542 26 1822 23 1509 19 2243 15 1762 16 1220 3 1840
